-.1321065865,.4770353428,-.1363292201
-.1397978534,.5062101932,-.6568808073e-1
-.1490456452,.5334930602,.1758138909e-2
-.1596648309,.5591089752,.6668010945e-1
-.1715194182,.5832232362,.1295897862
-.1845075881,.6059596092,.1908929829
-.1985524024,.6274116112,.2509223210
-.2135958208,.6476497922,.3099590237
-.2295947441,.6667265412,.3682480264
-.1323674567,.3352680528,-.5742601140
-.1247089831,.3831007823,-.4608052533
-.1224932829,.4243177252,-.3641467578
-.1238853101,.4611494120,-.2778419634
-.1279523941,.4947295188,-.1986417496
-.1341436166,.5257276998,-.1246304685
-.1421023798,.5545774048,-.5456146430e-1
-.1515834489,.5815767178,.1243516050e-1
-.1624110237,.6069393328,.7699957270e-1
-.1744554778,.6308228078,.1396236155
-.1876195454,.6533453738,.2006993701
-.2018296925,.6745964098,.2605498670
-.2170305284,.6946432488,.3194495565
-.1497061632,.3284356313,-.7000282047
-.1335826551,.3865577570,-.5587190806
-.1267688275,.4333638033,-.4479429037
-.1250789858,.4739415573,-.3528393999
-.1268470120,.5103162118,-.2675664184
-.1312055775,.5435420178,-.1891042275
-.1376352105,.5742504078,-.1156460803
-.1457966410,.6028537658,-.4600438504e-1
-.1554551237,.6296374308,.2065571129e-1
-.1664416722,.6548068098,.8495218763e-1
-.1786313404,.6785137738,.1473621836
-.1919302353,.7008724548,.2082676989
-.2062673585,.7219691508,.2679847063
-.1964402288,.2875935997,-.9263255124
-.1521075185,.3800045057,-.6858243559
-.1371144472,.4367525681,-.5483208206
-.1308460380,.4828956489,-.4392618962
-.1295023908,.5230525965,-.3451742860
-.1315205667,.5591231885,-.2605821402
-.1360743536,.5921117015,-.1826098582
-.1426644095,.6226250935,-.1095203152
-.1509626861,.6510621125,-.4016408490e-1
-.1607412896,.6776997695,.2627084871e-1
-.1718357104,.7027380265,.9038792820e-1
-.1841240969,.7263249975,.1526546201
-.1975147955,.7485720895,.2134462744
-.2174354866+.8466066228e-1*I,.2799060804+.1029065196*I,-1.047197551+.3070798816*I
-.1984879176,.3414609042,-.9072909840
-.1575188007,.4297833032,-.6788881672
-.1430590680,.4858830836,-.5431723983
-.1370551060,.5317047247,-.4349423972
-.1358811873,.5716553655,-.3413505019
-.1380227608,.6075759645,-.2570925117
-.1426732299,.6404469575,-.1793615335
-.1493429554,.6708635105,-.1064539525
-.1577093342,.6992177515,-.3723885133e-1
-.1675478126,.7257826285,.2908466315e-1
-.1786960751,.7507554395,.9311293798e-1
-.1910337895,.7742824525,.1553086991
-.2069685822+.1276155442*I,.3125097830+.1551189317*I,-1.047197551+.4543953093*I
-.2258693217+.8485531395e-1*I,.3280593235+.1031431220*I,-1.047197552+.3077644628*I
-.2073360888,.3891105142,-.9088324868
-.1661031196,.4777536316,-.6794824050
-.1515981611,.5339083841,-.5436152388
-.1455715959,.5797574988,-.4353144837
-.1443831213,.6197258318,-.3416801402
-.1465140931,.6556593178,-.2573934836
-.1511562461,.6885404198,-.1796417847
-.1578191124,.7189653088,-.1067185681
-.1661796246,.7473266808,-.3749133512e-1
-.1760129429,.7738978308,.2884176171e-1
-.1871565630,.7988762848,.9287767407e-1
-.1979028778+.1624880869*I,.3456812133+.1975071188*I,-1.047197551+.5676934730*I
-.2168036169+.1296400251*I,.3612307534+.1575797235*I,-1.047197552+.4611357666*I
-.2357043556+.8771699004e-1*I,.3767802936+.1066215394*I,-1.047197552+.3178125922*I
-.2240368237,.4294861032,-.9343304851
-.1782192535,.5237018849,-.6884736650
-.1630192903,.5807014265,-.5502752664
-.1566495310,.6269677015,-.4408980054
-.1552411596,.6672033215,-.3466209503
-.1572124108,.7033309515,-.2619014374
-.1617294979,.7363640735,-.1838373294
-.1682893504,.7669141795,-.1106786098
-.1765618329,.7953825515,-.4126876442e-1
-.1863177750,.8220477525,.2520847900e-1
-.1904113060+.1940713360*I,.3794904385+.2358971119*I,-1.047197551+.6649509184*I
-.2093120452+.1659187692*I,.3950399787+.2016771732*I,-1.047197552+.5785084218*I
-.2282127837+.1337085231*I,.4105895186+.1625250542*I,-1.047197552+.4746225447*I
-.2471135234+.9332993084e-1*I,.4261390599+.1134441675*I,-1.047197551+.3374306090*I
-.2660142629+.5153603126e-2*I,.4416886004+.6264294961e-2*I,-1.047197552+.1898710591e-1*I
-.1945060397,.5671318212,-.7075993732
-.1777580408,.6260130268,-.5641788850
-.1706515898,.6731747628,-.4524772867
-.1687781570,.7139756728,-.3568324994
-.1704143664,.7505105528,-.2711989307
-.1746704779,.7838608948,-.1924782086
-.1810161581,.8146713298,-.1188260092
-.1891061255,.8433615528,-.4903425570e-1
-.1847166312+.2241754803*I,.4140277175+.2724892272*I,-1.047197551+.7528158926*I
-.2036173696+.1988691392*I,.4295772571+.2417289256*I,-1.047197552+.6792702327*I
-.2225181091+.1712506893*I,.4451267980+.2081582154*I,-1.047197552+.5951963853*I
-.2414188473+.1399579924*I,.4606763381+.1701213940*I,-1.047197551+.4951831147*I
-.2603195875+.1016526260*I,.4762258791+.1235605492*I,-1.047197552+.3662892507*I
-.2792203260+.3952024998e-1*I,.4917754191+.4803755681e-1*I,-1.047197552+.1451010932*I
-.2161089931,.6070120720,-.7402290574
-.1964803861,.6693947070,-.5869944530
-.1881020078,.7181024930,-.4712390444
-.1854479254,.7598522970,-.3732737002
-.1865301757,.7970605230,-.2861114057
-.1903588867,.8309303780,-.2063019410
-.1963561352,.8621643370,-.1318359975
-.975258945e-1,.2847043034,-.1340101405
-.1052705175,.3138142976,-.6348385490e-1
-.1145647595,.3410407029,.3872204186e-2
-.1252253805,.3666062522,.6872251048e-1
-.1371176775,.3906746773,.1315749412
-.1501407465,.4133686284,.1928325322
-.1642183355,.4347807934,.2528259705
-.1792929335,.4549810740,.3118351055
-.1953218725,.4740213390,.3701039134
-.2122747165,.4919385810,.4278513830
-.2301315565,.5087569980,.4852799008
-.2488819615,.5244892720,.5425820841
-.2685244415,.5391372140,.5999467615
-.874611632e-1,.3032555331,-.1852085079
-.939872115e-1,.3338467280,-.1119722439
-.1022308418,.3623501718,-.4250231700e-1
-.1119614461,.3890461717,.2402232616e-1
-.1230127397,.4141368512,.8821089350e-1
-.1352616410,.4377718168,.1505346882
-.1486156060,.4600635595,.2113717026
-.1630046530,.4810971415,.2710350927
-.1783761730,.5009365095,.3297923326
-.1946914810,.5196286865,.3878787058
-.2119235220,.5372065585,.4455073018
-.2300553840,.5536906825,.5028768316
-.2490794140,.5690903615,.5601781385
-.795599634e-1,.3204112954,-.2410055963
-.846489585e-1,.3527492547,-.1643578059
-.916818662e-1,.3827243503,-.9227038671e-1
-.1003598758,.4106997994,-.2369306691e-1
-.1104731612,.4369306438,.4212615942e-1
-.1218691435,.4616023478,.1057522323
-.1344342770,.4848529278,.1676268277
-.1480829619,.5067864318,.2281074893
-.1627504932,.5274815108,.2874930138
-.1783884311,.5469970438,.3460407260
-.1949615240,.5653758798,.4039788298
-.2124456640,.5826473208,.4615156907
-.2308265860,.5988287088,.5188472132
-.741922881e-1,.3357789385,-.3024652183
-.775391998e-1,.3702344297,-.2214092078
-.831471546e-1,.4019415826,-.1460185753
-.906136841e-1,.4313896048,-.7488974001e-1
-.996662748e-1,.4589097419,-.7061221186e-2
-.1101116472,.4847369300,.5816440083e-1
-.1218082977,.5090431650,.1213166015
-.1346504867,.5319569800,.1828131089
-.1485583654,.5535754310,.2429948409
-.1634716412,.5739718030,.3021488758
-.1793454021,.5932006880,.3605242750
-.1961473309,.6113013700,.4183435217
-.2138558695,.6283000510,.4758112425
-.718884060e-1,.3487805309,-.3711783305
-.730422827e-1,.3859016952,-.2842148878
-.769259671e-1,.4197047276,-.2045463779
-.829678702e-1,.4508844088,-.1301854648
-.908001319e-1,.4798878775,-.5984703691e-1
-.1001707563,.5070214405,.7361454469e-2
-.1108995775,.5325040895,.7209441603e-1
-.1228539870,.5564970155,.1348531094
-.1359345801,.5791210465,.1960360491
-.1500662208,.6004675095,.2559707610
-.1651922701,.6206052515,.3149348719
-.1812707602,.6395852855,.3731707839
-.1982718497,.6574438835,.4308964185
-.734691369e-1,.3584963703,-.4497156505
-.717077478e-1,.3991610912,-.3544014092
-.734243340e-1,.4355982685,-.2689878686
-.777428839e-1,.4688727184,-.1904248101
-.841397075e-1,.4996209862,-.1168909236
-.922731975e-1,.5282583082,-.4719063689e-1
-.1019071871,.5550717442,.1951563922e-1
-.1128717630,.5802678302,.8384889513e-1
-.1250413416,.6039992142,.1462882739
-.1383215687,.6263805862,.2072171469
-.1526410981,.6474986672,.2669524495
-.1679462493,.6674187072,.3257643195
-.1841974627,.6861887932,.3838899101
-.803664670e-1,.3632777207,-.5427579758
-.743836338e-1,.4090736790,-.4345940987
-.732233289e-1,.4490077698,-.3410419010
-.753748220e-1,.4849163140,-.2568107176
-.800330734e-1,.5177778465,-.1790991271
-.867092180e-1,.5481865955,-.1062061774
-.950810880e-1,.5765341625,-.3700242865e-1
-.1049243975,.6030931665,.2931211953e-1
-.1160770063,.6280606955,.9333324776e-1
-.1284187036,.6515828665,.1555233004
-.1418590275,.6737696375,.2162540993
-.1563295708,.6947041585,.2758344770
-.1717789658,.7144488685,.3345288495
-.956687491e-1,.3594795334,-.6608315223
-.825431502e-1,.4139576479,-.5295645835
-.772209939e-1,.4589505446,-.4234601384
-.764903297e-1,.4983623991,-.3311553468
-.789565031e-1,.5338884430,-.2477708808
-.838624932e-1,.5664488460,-.1706733334
-.907434763e-1,.5966086110,-.9824470700e-1
-.992908906e-1,.6247427990,-.2940172989e-1
-.1092888493,.6511138250,.3662770313e-1
-.1205807525,.6759120400,.1004214805
-.1330502416,.6992788770,.1624299667
-.1466096625,.7213208840,.2230167253
-.1611927402,.7421186180,.2824847818
-.1306831883,.3334879431,-.8440825016
-.993437097e-1,.4101053500,-.6500066979
-.869822434e-1,.4636546470,-.5212719113
-.820638219e-1,.5081567954,-.4164179431
-.815994773e-1,.5472449345,-.3248811201
-.842623022e-1,.5825319435,-.2420219272
-.893239337e-1,.6149031635,-.1653070973
-.963340926e-1,.6449059135,-.9316875646e-1
-.1049925253,.6729051565,-.2455176575e-1
-.1150885083,.6991570325,.4129886704e-1
-.1264688641,.7238477315,.1049499996
-.1390196285,.7471157765,.1668445984
-.1526548970,.7690655895,.2273411068
-.1741094142+.7256788773e-1*I,.2991961514+.8820754005e-1*I,-1.047197551+.2642861419*I
-.1361839623,.3838189230,-.8362629771
-.1058875272,.4591684911,-.6458720232
-.938112095e-1,.5123711894,-.5180789874
-.890459439e-1,.5566871735,-.4136977332
-.886833751e-1,.5956516015,-.3224533091
-.914216726e-1,.6308468745,-.2397948990
-.965432050e-1,.6631452815,-.1632267333
-.1036031786,.6930874805,-.9119980799e-1
-.1123044885,.7210346055,-.2266964213e-1
-.1224383761,.7472404085,.4311225146e-1
-.1338529686,.7718894905,.1067085349
-.1464352186,.7951192665,.1685593504
-.1640927895+.1201401552*I,.3319822944+.1460324654*I,-1.047197551+.4293393598*I
-.1829935288+.7378940776e-1*I,.3475318349+.8969231897e-1*I,-1.047197552+.2686316010*I
-.1465740440,.4303240788,-.8419340080
-.1155241456,.5065894931,-.6488819885
-.1032406060,.5600440728,-.5204047362
-.983639051e-1,.6044955078,-.4156796298
-.979272445e-1,.6435499978,-.3242223988
-.1006105809,.6788120758,-.2414178171
-.1056884824,.7111635178,-.1647428613
-.1127121666,.7411498278,-.9263479953e-1
-.1213822372,.7691349248,-.2404140037e-1
-.1314885058,.7953742978,.4179055566e-1
-.1428781505,.8200537058,.1054267882
-.1555304732+.1569412491*I,.3653576839+.1907648401*I,-1.047197551+.5500798338*I
-.1744312120+.1229723457*I,.3809072239+.1494750423*I,-1.047197552+.4388629069*I
-.1933319506+.7808595544e-1*I,.3964567639+.9491484795e-1*I,-1.047197552+.2838764822*I
-.1627979942,.4720950459,-.8640349450
-.1286570034,.5521177392,-.6600265423
-.1155891234,.6065256968,-.5289512846
-.1102971250,.6514819338,-.4229404683
-.1095862552,.6908697288,-.3306928944
-.1120670030,.7263780568,-.2473474625
-.1169845064,.7589244658,-.1702783055
-.1238750318,.7890726308,-.9787119231e-1
-.1324306394,.8171968608,-.2904495111e-1
-.1424358268,.8435590998,.3697124790e-1
-.1486101111+.1897701564*I,.3993983471+.2306689528*I,-1.047197551+.6520115751*I
-.1675108515+.1611064692*I,.4149478882+.1958277381*I,-1.047197552+.5633209557*I
-.1864115904+.1279900520*I,.4304974286+.1555741524*I,-1.047197552+.4556436892*I
-.2053123299+.8538845714e-1*I,.4460469696+.1037911670*I,-1.047197551+.3096387875*I
-.1879432541,.5056831067,-.9131618750
-.1459612930,.5952366370,-.6811211293
-.1313311646,.6515435350,-.5448347472
-.1252422141,.6974684810,-.4363386130
-.1240136145,.7374855860,-.3425871875
-.1261153788,.7734545760,-.2582215174
-.1307346304,.8063635140,-.1804127226
-.1373786146,.8368113540,-.1074464319
-.1457229802,.8651923530,-.3818577916e-1
-.597242760e-1,.2873395486,-.6401381980e-1
-.690073600e-1,.3145795164,.3363868345e-2
-.796580260e-1,.3401571654,.6823136356e-1
-.915412600e-1,.3642366071,.1310975315
-.1045559410,.3869407544,.1923660620
-.1186256510,.4083624962,.2523681102
-.1336927530,.4285718899,.3113838556
-.1497144730,.4476209278,.3696575002
-.1666602920,.4655467088,.4274081945
-.1845102230,.4823735248,.4848384239
-.2032537650,.4981141418,.5421408578
-.2228893590,.5127704528,.5995043309
-.2434243170,.5263335718,.6571195046
-.477500477e-1,.3074166003,-.1112236357
-.560103801e-1,.3358997412,-.4178850362e-1
-.657556507e-1,.3625779144,.2470869188e-1
-.768201186e-1,.3876525803,.8887538856e-1
-.890810795e-1,.4112728877,.1511817131
-.1024462605,.4335509954,.2120048465
-.1168458885,.4545717168,.2716573817
-.1322275145,.4743988008,.3304063867
-.1485525865,.4930791098,.3884868677
-.1657941635,.5106453908,.4461117242
-.1839354335,.5271180798,.5034795522
-.2029688385,.5425063628,.5607811427
-.2228956905,.5568086438,.6182053069
-.376447900e-1,.3264227197,-.1621717931
-.447299687e-1,.3563342813,-.9020112753e-1
-.534529872e-1,.3842550193,-.2171482506e-1
-.636060748e-1,.4104374835,.4403233519e-1
-.750380178e-1,.4350654768,.1076009019
-.876362289e-1,.4582758515,.1694295927
-.1013158111,.4801718005,.2298739073
-.1160125950,.5008313215,.2892311976
-.1316785695,.5203127755,.3477577745
-.1482788355,.5386585815,.4056811348
-.1657895920,.5558976695,.4632091779
-.1841968500,.5720470455,.5205375389
-.2034957120,.5871126615,.5778558269
-.296703410e-1,.3440912124,-.2175671238
-.353781680e-1,.3756769692,-.1424152471
-.429286180e-1,.4050229852,-.7146926384e-1
-.520540153e-1,.4324546249,-.3783977779e-2
-.625641562e-1,.4582030838,.6132791904e-1
-.743196143e-1,.4824378388,.1243892980
-.872161228e-1,.5052856268,.1858133932
-.1011749264,.5268421768,.2459380025
-.1161365758,.5471797508,.3050479994
-.1320568369,.5663521148,.3633908899
-.1489039604,.5843978608,.4211880893
-.1666568852,.6013425898,.4786435344
-.1853041185,.6172002708,.5359506561
-.241786713e-1,.3600543312,-.2784040047
-.282296626e-1,.3936539989,-.1991628187
-.344077617e-1,.4246681327,-.1251209057
-.423553936e-1,.4535313683,-.5502827596e-1
-.518267347e-1,.4805425065,.1198693684e-1
-.626456053e-1,.5059156995,.7656613924e-1
-.746821178e-1,.5298088295,.1392020000
-.878388188e-1,.5523403485,.2002871580
-.1020420352,.5735998105,.2601450395
-.1172362651,.5936546785,.3190503701
-.1333804656,.6125548395,.3772435161
-.1504455759,.6303356195,.4349410091
-.1684129017,.6470197405,.4923436864
-.216669499e-1,.3737779463,-.3461491847
-.236535186e-1,.4098869592,-.2614712618
-.281825808e-1,.4429055236,-.1834371344
-.347522863e-1,.4734436522,-.1103009930
-.430331825e-1,.5019017988,-.4090864302e-1
-.527965153e-1,.5285580168,.2555479262e-1
-.638772119e-1,.5536129568,.8969458888e-1
-.761530307e-1,.5772152038,.1519794246
-.895320350e-1,.5994765098,.2127854886
-.1039447027,.6204813808,.2724246758
-.1193387860,.6402933228,.3311635633
-.1356758957,.6589589998,.3892368091
-.1529292299,.6765109898,.4468570836
-.228886669e-1,.3844285110,-.4231254133
-.221707551e-1,.4238248646,-.3308574882
-.246463169e-1,.4593394963,-.2474981688
-.295597234e-1,.4918908860,-.1704189093
-.364468530e-1,.5220431780,-.9800414341e-1
-.449995447e-1,.5501709530,-.2917194543e-1
-.550021596e-1,.5765363190,.3684896341e-1
-.662982608e-1,.6013294310,.1006359386
-.787716056e-1,.6246915820,.1626389951
-.923346223e-1,.6467292180,.2232214490
-.1069211007,.6675228180,.2826861529
-.1224814069,.6871327130,.3412932966
-.1389793029,.7056029520,.3992730823
-.291149697e-1,.3905580603,-.5134280180
-.245705657e-1,.4346055850,-.4097268083
-.243554900e-1,.4733907326,-.3189050375
-.272034758e-1,.5084526765,-.2365376426
-.324122311e-1,.5406450635,-.1601823887
-.395448398e-1,.5704989735,-.8831738469e-1
-.483087342e-1,.5983700265,-.1991349384e-1
-.584979924e-1,.6245085245,.4576839144e-1
-.699626329e-1,.6490967735,.1092848644
-.825909337e-1,.6722705735,.1710719748
-.962986334e-1,.6941323445,.2314833776
-.1110220485,.7147594955,.2908151240
-.1267135549,.7342099145,.3493226049
-.429211398e-1,.3891517766,-.6257235926
-.321838642e-1,.4407268419,-.5023286798
-.281561103e-1,.4841463675,-.4002105299
-.282893984e-1,.5225080752,-.3103818224
-.313979309e-1,.5572533192,-.2287018016
-.368146524e-1,.5891929192,-.1528511098
-.441209160e-1,.6188357482,-.8137064999e-1
-.530347463e-1,.6465245522,-.1326704918e-1
-.633568761e-1,.6725015422,.5217682277e-1
-.749417774e-1,.6969436122,.1155032985
-.876808623e-1,.7199827512,.1771388020
-.1014921769,.7417185762,.2374303053
-.1163138089,.7622263432,.2966691549
-.721298608e-1,.3708395880,-.7874791842
-.477093834e-1,.4390468271,-.6176893950
-.374837551e-1,.4899999759,-.4959638079
-.337458383e-1,.5330672018,-.3947288373
-.340766046e-1,.5711888688,-.3054597668
-.373337509e-1,.6057534728,-.2241693237
-.428695856e-1,.6375482888,-.1486056340
-.502756089e-1,.6670698578,-.7734441989e-1
-.592757693e-1,.6946537258,-.9412282471e-2
-.696745439e-1,.7205375528,.5589557240e-1
-.813289191e-1,.7448951758,.1191134453
-.941320850e-1,.7678564238,.1806623197
-.1080034010,.7895193158,.2408853907
-.1309282575+.5859909562e-1*I,.3185449379+.7122822824e-1*I,-1.047197551+.2142628645*I
-.794055988e-1,.4196953546,-.7847218808
-.552872958e-1,.4875352929,-.6159833314
-.451687492e-1,.5383582855,-.4946062828
-.414920584e-1,.5813510892,-.3935574183
-.418647283e-1,.6194218212,-.3044067858
-.451534946e-1,.6539479892,-.2231990002
-.507147191e-1,.6857119432,-.1476962965
-.581420346e-1,.7152076322,-.7648171635e-1
-.671606389e-1,.7427690802,-.8586074481e-2
-.775758017e-1,.7686329882,.5669281924e-1
-.892450412e-1,.7929725422,.1198875639
-.1020619259,.8159171152,.1814179954
-.1213782658+.1124969083*I,.3515201481+.1367419646*I,-1.047197551+.4034554775*I
-.1402790058+.6132210872e-1*I,.3670696890+.7453809836e-1*I,-1.047197552+.2240594423*I
-.909802179e-1,.4655169499,-.7931966858
-.659235593e-1,.5344974787,-.6211908127
-.554764546e-1,.5857198388,-.4987434123
-.516125285e-1,.6289402278,-.3971249181
-.518572584e-1,.6671664748,-.3076123262
-.550495758e-1,.7018098778,-.2261521665
-.605334065e-1,.7336679048,-.1504633538
-.678958495e-1,.7632424478,-.7910650904e-1
-.768582778e-1,.7908721788,-.1109956290e-1
-.872235415e-1,.8167967388,.5426764625e-1
-.988475318e-1,.8411912958,.1175329139
-.1133400556+.1514591134*I,.3851078906+.1841012081*I,-1.047197551+.5325177098*I
-.1322407958+.1162571343*I,.4006574316+.1413125851*I,-1.047197552+.4162224712*I
-.1511415348+.6763990269e-1*I,.4162069721+.8221748770e-1*I,-1.047197552+.2467063283*I
-.1077379242,.5074885423,-.8155741119
-.8006122395e-1,.5796537768,-.6344030720
-.6875716195e-1,.6319177818,-.5091515665
-.6441353645e-1,.6757212558,-.4060668651
-.6433328475e-1,.7143425228,-.3156303048
-.6728186225e-1,.7492821958,-.2335289421
-.7257077845e-1,.7813771458,-.1573686909
-.7977024465e-1,.8111497888,-.8565217117e-1
-.8859181245e-1,.8389507388,-.1736416210e-1
-.9883214425e-1,.8650271568,.4822590624e-1
-.23872208e-1,.2881189632,.2077657238e-2
-.34497660e-1,.3137272586,.6698876628e-1
-.46357951e-1,.3378345870,.1298897676
-.59351398e-1,.3605645456,.1911860541
-.73401167e-1,.3820105255,.2512099514
-.88449298e-1,.4022429779,.3102424731
-.104452758,.4213142128,.3685284111
-.121380804,.4392615962,.4262873130
-.139213259,.4561096542,.4837219215
-.157939443,.4718713702,.5410250379
-.177557626,.4865488462,.5983855179
-.198074943,.5001334062,.6559939310
-.219507757,.5126051652,.7140483710
-.102398138e-1,.3094360093,-.4190423698e-1
-.199827075e-1,.3361170723,.2459740602e-1
-.310450399e-1,.3611943337,.8876764571e-1
-.433040460e-1,.3848170176,.1510768008
-.566674080e-1,.4070973354,.2119021814
-.710653200e-1,.4281201414,.2715564741
-.864453080e-1,.4479492182,.3303068144
-.1027687970,.4666314512,.3883882486
-.1200088280,.4841996112,.4460137103
-.1381485720,.5006741542,.5033818127
-.1571804560,.5160642862,.5606833562
-.1771057790,.5303684272,.6181071491
-.1979347780,.5435741342,.6758456667
.17379773e-2,.3299124121,-.8902731374e-1
-.70105230e-2,.3578021760,-.2059241488e-1
-.171861567e-1,.3839572354,.4511403435e-1
-.286384790e-1,.4085604578,.1086501114
-.412554422e-1,.4317480384,.1704528690
-.549525462e-1,.4536226885,.2308766551
-.696659245e-1,.4742620395,.2902180111
-.853478076e-1,.4937241565,.3487326724
-.1019634966,.5120512155,.4066477395
-.1194893635,.5292719365,.4641708507
-.1379115765,.5454031345,.5214974898
-.1572253865,.5604505805,.5788172147
-.1774348905,.5744092945,.6363193763
.118643622e-1,.3493555591,-.1397931229
.42531007e-2,.3786276581,-.6897909092e-1
-.49251181e-2,.4059950928,-.1397242704e-2
-.154822941e-1,.4316863810,.6363249528e-1
-.272804913e-1,.4558691848,.1266282524
-.402165048e-1,.4786689548,.1880000436
-.542123656e-1,.5001804608,.2480834196
-.692092343e-1,.5204752238,.3071616696
-.851633672e-1,.5396064158,.3654811848
-.1020434270,.5576121278,.4232626148
-.1198287134,.5745175208,.4807094020
-.1385080629,.5903361638,.5380147155
-.1580792829,.6050707238,.5953674776
.198860528e-1,.3675118306,-.1948751953
.136002711e-1,.3983950748,-.1210840550
.55612271e-2,.4271471955,-.5118496285e-1
-.39900505e-2,.4540611708,.1567792652e-1
-.148804862e-1,.4793473755,.8013588735e-1
-.269823222e-1,.5031611025,.1426748883
-.401996367e-1,.5256189455,.2036829853
-.544599048e-1,.5468090595,.2634803882
-.697085227e-1,.5667978175,.3223395562
-.859051774e-1,.5856342205,.3804992646
-.1030214275,.6033528385,.4381749626
-.1210391265,.6199757295,.4955668126
-.1399494722,.6355135935,.5528663288
.254656835e-1,.3840344109,-.2552101514
.207632967e-1,.4168422971,-.1776083840
.140507292e-1,.4472067743,-.1047983526
.56476900e-2,.4755164542,-.3565896628e-1
-.42230470e-2,.5020421202,.3060474787e-1
-.154003370e-1,.5269796472,.9458534855e-1
-.277646601e-1,.5504743172,.1567430350
-.412260555e-1,.5726354742,.2174481419
-.557164978e-1,.5935458082,.2770084645
-.711849184e-1,.6132673922,.3356876807
-.875938962e-1,.6318457122,.3937184228
-.1049174567,.6493123412,.4513119998
-.1231396542,.6656866612,.5086660498
.281326656e-1,.3984252670,-.3221631881
.253853723e-1,.4336096040,-.2395286847
.202566942e-1,.4658993258,-.1629779900
.131907740e-1,.4958342972,-.9096434264e-1
.44843433e-2,.5237751982,-.2244452960e-1
-.56540723e-2,.5499754952,.4332916489e-1
-.170727571e-1,.5746196052,.1069189089
-.296587705e-1,.5978448052,.1687645014
-.433269582e-1,.6197546042,.2292221988
-.580129528e-1,.6404272412,.2885898828
-.736685849e-1,.6599212652,.3471242346
-.902588263e-1,.6782792562,.4050530138
-.1077597629,.6955302822,.4625842916
.271865679e-1,.4099199509,-.3978593256
.269682963e-1,.4481783572,-.3082717565
.237958896e-1,.4828459645,-.2267593943
.183280172e-1,.5147233888,-.1510321311
.109789399e-1,.5443141768,-.7964591410e-1
.20280777e-2,.5719579668,-.1161599475e-1
-.83269178e-2,.5978950088,.5376943886e-1
-.199416000e-1,.6223008788,.1170492560
-.327081468e-1,.6453066378,.1786475384
-.465451697e-1,.6670112148,.2389096328
-.613911894e-1,.6874893378,.2981257358
-.772003418e-1,.7067967558,.3565471075
-.939395157e-1,.7249737178,.4143977504
.214785141e-1,.4172247927,-.4859458736
.247693997e-1,.4597486393,-.3860659323
.241311696e-1,.4974965819,-.2976632694
.206413233e-1,.5317783338,-.2169791425
.149182656e-1,.5633455768,-.1418635869
.73550041e-2,.5926760188,-.7094544312e-1
-.17815177e-2,.6200941378,-.3281972642e-2
-.123015613e-1,.6458305608,.6181259701e-1
-.240660148e-1,.6700543818,.1248601380
-.369708369e-1,.6928920648,.1862732030
-.509374366e-1,.7144391388,.2463891139
-.659064941e-1,.7347677068,.3054924096
-.818338789e-1,.7539314118,.3638303624
.87946207e-2,.4177713408,-.5937766631
.175671536e-1,.4669582299,-.4767552263
.204574413e-1,.5089951451,-.3780819102
.195407145e-1,.5464045685,-.2904587566
.158387145e-1,.5804284435,-.2103233951
.99442072e-2,.6117872875,-.1356149750
.22364899e-2,.6409421425,-.6500928533e-1
-.70256191e-2,.6682076055,.2409111083e-2
-.176575728e-1,.6938080005,.6730896717e-1
-.295237778e-1,.7179081405,.1302009810
-.425226978e-1,.7406314465,.1914901048
-.565776064e-1,.7620711785,.2515083622
-.716306268e-1,.7822976885,.3105365539
-.167956381e-1,.4044985214,-.7419437110
.29933791e-2,.4670761390,-.5881592534
.114389091e-1,.5158655469,-.4721884734
.141334242e-1,.5576644985,-.3741021242
.130795767e-1,.5949072505,-.2868608773
.92726412e-2,.6288035735,-.2069955081
.32930672e-2,.6600590165,-.1324879345
-.44864894e-2,.6891265495,-.6203664672e-1
-.138111650e-1,.7163159635,.5260515761e-2
-.244989499e-1,.7418484935,.7006399133e-1
-.364159788e-1,.7658868565,.1328790162
-.494619470e-1,.7885529735,.1941068119
-.635610482e-1,.8099389895,.2540768041
-.878970655e-1+.4087354850e-1*I,.3379544864+.4968251491e-1*I,-1.047197551+.1500334615*I
-.254138450e-1,.4524276569,-.7426558689
-.55579255e-2,.5150865928,-.5886419929
.29155011e-2,.5639099158,-.4725816881
.56267889e-2,.6057292528,-.3744451259
.45847152e-2,.6429863138,-.2871711413
.7868028e-3,.6768936048,-.2072825945
-.51854500e-2,.7081579468,-.1327577638
-.129588196e-1,.7372330008,-.6229320414e-1
-.222781031e-1,.7644289678,.5014381263e-2
-.329610753e-1,.7899673488,.6982614688e-1
-.448737209e-1,.8140110388,.1326477913
-.579156304e-1,.8366820888,.1938808609
-.788313608e-1+.1046511826*I,.3711259165+.1272053474*I,-1.047197551+.3766165675*I
-.977321001e-1+.4633934046e-1*I,.3866754570+.5632628083e-1*I,-1.047197552+.1699166554*I
-.380604251e-1,.4977311420,-.7534963149
-.171654785e-1,.5616530375,-.5959121872
-.82672442e-2,.6109927175,-.4784860722
-.53021935e-2,.6531205095,-.3795881230
-.61667319e-2,.6905933685,-.2918192841
-.98288759e-2,.7246656875,-.2115811293
-.156911192e-1,.7560637485,-.1367963323
-.233716187e-1,.7852516865,-.6613197325e-1
-.326100420e-1,.8125459415,.1332469893e-2
-.432208734e-1,.8381720105,.6626891995e-1
-.550678613e-1,.8622955085,.1291901654
.10264024e-1,.2873150786,.6501023156e-1
-.1559684e-2,.3114668745,.1279669772
-.14519288e-1,.3342379691,.1893076769
-.28537286e-1,.3557225668,.2493665549
-.43555202e-1,.3759917468,.3084259618
-.59529584e-1,.3950983262,.3667316275
-.76429339e-1,.4130800977,.4245037464
-.94233982e-1,.4299619620,.4819454717
-.112932548,.4457572470,.5392498214
-.132523035,.4604683880,.5966056868
-.153012299,.4740870480,.6542035000
-.174416408,.4865936990,.7122410273
-.196761469,.4979566060,.7709297960
.253682125e-1,.3096633633,.2370842850e-1
.143229469e-1,.3347613692,.8790701127e-1
.2079563e-2,.3584030417,.1502388094
-.11269271e-1,.3807010209,.2110821800
-.25653478e-1,.4017404848,.2707505431
-.41020376e-1,.4215854716,.3295115564
-.57331220e-1,.4402830760,.3876006318
-.74558900e-1,.4578662480,.4452309447
-.92686461e-1,.4743556010,.5026012604
-.111706204,.4897604900,.5599024440
-.131619309,.5040794820,.6173232939
-.152435889,.5173002850,.6750561952
-.174175503,.5293991230,.7333030829
.389814566e-1,.3313425665,-.2030008719e-1
.287999555e-1,.3574904936,.4539577953e-1
.173423289e-1,.3820872668,.1089234083
.47204836e-2,.4052689133,.1707194254
-.89811828e-2,.4271380178,.2311378763
-.236988831e-1,.4477721160,.2904750924
-.393849095e-1,.4672291960,.3489866594
-.560046162e-1,.4855513710,.4068995756
-.735344195e-1,.5027673080,.4644214105
-.919605285e-1,.5188937700,.5217476095
-.1112782335,.5339364810,.5790677180
-.1314916695,.5478904150,.6365710966
-.1526140265,.5607395410,.6944526321
.509493491e-1,.3522071245,-.6738570030e-1
.417374125e-1,.3795335739,.1303285004e-3
.311501927e-1,.4051883425,.6510777180e-1
.193246794e-1,.4293379446,.1280617621
.63634061e-2,.4521070105,.1894002673
-.76561591e-2,.4735897035,.2494574145
-.226755651e-1,.4938570725,.3085154920
-.386513804e-1,.5129619095,.3668201794
-.555525300e-1,.5309419855,.4245916425
-.733585441e-1,.5478221835,.4820330135
-.920584712e-1,.5636158145,.5393372980
-.1116503220,.5783252965,.5966933858
-.1321409688,.5919422765,.6542917171
.610792613e-1,.3720719239,-.1180305780
.529713902e-1,.4007403856,-.4827647938e-1
.433598491e-1,.4275811089,.1847220075e-1
.324154040e-1,.4528016643,.8283922695e-1
.202642265e-1,.4765554148,.1453055821
.70010939e-2,.4989575648,.2062559046
-.73023291e-2,.5200952248,.2660080138
-.225921111e-1,.5400339468,.3248326729
-.388284887e-1,.5588220658,.3829674743
-.559834861e-1,.5764935858,.4406270634
-.740393711e-1,.5930700618,.4980111057
-.929877261e-1,.6085617238,.5553108790
-.1128290236,.6229679988,.6127151404
.691247956e-1,.3906945522,-.1728784722
.622971819e-1,.4209191886,-.1003293408
.537955639e-1,.4491090426,-.3139265020e-1
.438379908e-1,.4755291590,.3471088597e-1
.325824945e-1,.5003716260,.9856376227e-1
.201464290e-1,.5237790900,.1606194433
.66181767e-2,.5458589830,.2212436253
-.79354337e-2,.5666925340,.2807408331
-.234642810e-1,.5863406680,.3393724423
-.399317237e-1,.6048479240,.3973694766
-.573124558e-1,.6222450590,.4549421704
-.755911315e-1,.6385507290,.5122875209
-.947615704e-1,.6537724450,.5695956466
.747603761e-1,.4077458828,-.2328178058
.694525700e-1,.4398178700,-.1567034173
.622373344e-1,.4695713456,-.8502183885e-1
.534021535e-1,.4973557485,-.1676111305e-1
.431497604e-1,.5234175055,.4880732972e-1
.316280058e-1,.5479363305,.1122332525
.189471134e-1,.5710462045,.1739481032
.51902441e-2,.5928482085,.2343023367
-.95797640e-2,.6134187255,.2935897573
-.253159587e-1,.6328148255,.3520641654
-.419843225e-1,.6510778575,.4099513223
-.595618167e-1,.6682358255,.4674579851
-.780351437e-1,.6843048925,.5247791382
.775367807e-1,.4227578959,-.2991301306
.740904657e-1,.4570925603,-.2183329293
.684024983e-1,.4887024552,-.1431336617
.608687467e-1,.5180687702,-.7215136203e-1
.517578450e-1,.5455180292,-.4437620565e-2
.412606046e-1,.5712821702,.6069687555e-1
.295168641e-1,.5955311682,.1237763037
.166311828e-1,.6183921162,.1852147855
.26825323e-2,.6399610072,.2453507410
-.122694702e-1,.6603103072,.3044694799
-.281804557e-1,.6794939452,.3628188155
-.450185622e-1,.6975506512,.4206203756
-.627626303e-1,.7145061462,.4780782339
.767956805e-1,.4350222498,-.3737810195
.757308178e-1,.4722516122,-.2865703978
.719154396e-1,.5061376715,-.2067267122
.659290131e-1,.5373847865,-.1322352794
.581436654e-1,.5664452795,-.6179641057e-1
.488139431e-1,.5936285585,.5490995354e-2
.381216520e-1,.6191556125,.7028671647e-1
.262005199e-1,.6431889875,.1330955437
.131507513e-1,.6658504855,.1943184059
-.9519211e-3,.6872321605,.2542845170
-.160503911e-1,.7074034255,.3132726904
-.321023166e-1,.7264157485,.3715261687
-.490775384e-1,.7443057895,.4292634437
.714826216e-1,.4433661391,-.4600685155
.736677735e-1,.4845459505,-.3635007340
.722540350e-1,.5213512460,-.2772557924
.681701837e-1,.5549109760,-.1980982321
.619652833e-1,.5858925300,-.1241188588
.539949159e-1,.6147281290,-.5407446867e-1
.445037041e-1,.6417151150,.1290279251e-1
.336670523e-1,.6670666950,.7745179131e-1
.216143156e-1,.6909401020,.1400635206
.84425642e-2,.7134533280,.2011294781
-.57748139e-2,.7346955760,.2609722844
-.209825403e-1,.7547340380,.3198660981
-.371397549e-1,.7736183810,.3780508903
.596471030e-1,.4455489334,-.5643856966
.667647244e-1,.4927242457,-.4526487181
.686451363e-1,.5335336418,-.3569833141
.670139258e-1,.5700745988,-.2713360454
.627616943e-1,.6034296558,-.1926055181
.564191900e-1,.6342439508,-.1189459614
.483319235e-1,.6629374568,-.4914852196e-1
.387384307e-1,.6898001178,.1763430544e-1
.278101657e-1,.7150403408,.8202852273e-1
.156737731e-1,.7388120638,.1445166013
.24243737e-2,.7612309068,.2054841967
-.118661117e-1,.7823842908,.2652498420
-.271435513e-1,.8023380158,.3240848103
.365238073e-1,.4359357099,-.7030912831
.528980831e-1,.4943626501,-.5609350727
.598301518e-1,.5413124215,-.4497852942
.615943574e-1,.5819805665,-.3544627498
.598797950e-1,.6184202045,-.2690436744
.555628183e-1,.6516965635,-.1904766543
.491672837e-1,.6824464005,-.1169397848
.410348918e-1,.7110850555,-.4723719641e-1
.314018638e-1,.7378996615,.1947089577e-1
.204381507e-1,.7630967965,.8380559904e-1
.82693606e-2,.7868291395,.1462461331
-.50101335e-2,.8092114015,.2071759247
-.193289722e-1,.8303303225,.2669119460
-.401760373e-1,.3633164633,-1.029344531
.267474429e-1,.4831868478,-.7065812892
.434105530e-1,.5419648711,-.5634481648
.504775856e-1,.5890786938,-.4518713870
.523263751e-1,.6298496508,-.3562993557
.506725054e-1,.6663630648,-.2707141684
.464026849e-1,.6996967428,-.1920280961
.400457803e-1,.7304935338,-.1184018873
.319462642e-1,.7591721508,-.4863022240e-1
.223420422e-1,.7860217708,.1813230057e-1
.114041592e-1,.8112503028,.8251034979e-1
-.7410218e-3,.8350113428,.1449855105
-.139985844e-1,.8574202638,.2059428345
.42860315e-1,.2851312854,.1253422664
.29946984e-1,.3079586254,.1867440520
.15972403e-1,.3294959974,.2468510704
.995760e-3,.3498153465,.3059475204
-.14938919e-1,.3689701848,.3642804284
-.31800061e-1,.3869988916,.4220708852
-.49566758e-1,.4039268805,.4795226165
-.68227657e-1,.4197679502,.5368289384
-.87780383e-1,.4345249898,.5941788047
-.108231416,.4481901218,.6517624660
-.129596418,.4607443078,.7097772571
-.151901049,.4721563568,.7684339767
-.175182363,.4823812318,.8279644972
.592927801e-1,.3083524035,.8631019212e-1
.47078409e-1,.3320293406,.1486841583
.33756552e-1,.3543601109,.2095610397
.19397784e-1,.3754304961,.2692556259
.4055177e-2,.3953050095,.3280365469
-.12232202e-1,.4140311345,.3861398937
-.29436975e-1,.4316421530,.4437793015
-.47541938e-1,.4481589730,.5011538135
-.66539168e-1,.4635912260,.5584544222
-.86429622e-1,.4779377510,.6158699080
-.107223182,.4911865350,.6735924953
-.128939159,.5033141050,.7318237978
-.151607310,.5142842900,.7907815852
.743638073e-1,.3310371499,.4489882652e-1
.629155384e-1,.3556452982,.1084413579
.503023051e-1,.3788374123,.1702492676
.366086866e-1,.4007162993,.2306771322
.218986094e-1,.4213596624,.2900216529
.62198916e-2,.4408256268,.3485386804
-.103927292e-1,.4591564158,.4064553938
-.279155900e-1,.4763807918,.4639794817
-.463348260e-1,.4925156068,.5213064596
-.656456620e-1,.5075666678,.5786258947
-.858521630e-1,.5215290328,.6361271295
-.1069674460,.5343867558,.6940049821
-.1290143520,.5461120758,.7524659187
.879483442e-1,.3530715597,.8259525947e-3
.773474580e-1,.3787097177,.6577965980e-1
.655095162e-1,.4028442113,.1287146867
.525367466e-1,.4255993031,.1900380827
.385063900e-1,.4470688788,.2500833286
.234767222e-1,.4673237748,.3091322558
.74910321e-2,.4864166088,.3674302270
-.94197241e-2,.5043850078,.4251971839
-.272351812e-1,.5212537278,.4826361211
-.459444843e-1,.5370359628,.5399399697
-.655457375e-1,.5517340158,.5972976072
-.860459064e-1,.5653394208,.6548995188
-.1074611725,.5778325108,.7129435977
.998939536e-1,.3743146595,-.4626762451e-1
.902409034e-1,.4011049270,.2040270529e-1
.792592287e-1,.4262802302,.8470733467e-1
.670740171e-1,.4499926135,.1471238445
.537792644e-1,.4723563275,.2080345354
.394460453e-1,.4934577695,.2677555970
.241278283e-1,.5133619285,.3265566366
.78640014e-2,.5321166815,.3846744351
-.93177817e-2,.5497556435,.4423230921
-.274000743e-1,.5663000205,.4997019361
-.463747248e-1,.5817597205,.5570020888
-.662424650e-1,.5961338535,.6144123166
-.870129475e-1,.6094106885,.6721246875
.1100112732,.3945878491,-.9684764264e-1
.1014332338,.4226848117,-.2806717487e-1
.914082513e-1,.4490229890,.3791281548e-1
.800919756e-1,.4737915788,.1016671535
.676001015e-1,.4971312068,.1636441497
.540197983e-1,.5191478308,.2242059458
.394169724e-1,.5399215608,.2836545673
.238410142e-1,.5595124298,.3422496209
.73279627e-2,.5779642468,.4002209017
-.100973953e-1,.5953071398,.4577778252
-.284201811e-1,.6115591918,.5151169073
-.476346546e-1,.6267273828,.5724280767
-.677439263e-1,.6408079308,.6299004312
.1180593708,.4136583503,-.1515327596
.1107220660,.4432634481,-.8012065033e-1
.1017813892,.4709196185,-.1207048540e-1
.914354354e-1,.4968676515,.5333100933e-1
.798289469e-1,.5212834815,.1166236489
.670699578e-1,.5442984265,.1782321595
.532400100e-1,.5660116035,.2385023343
.384007035e-1,.5864978865,.2977246858
.225979965e-1,.6058131395,.3561506955
.58650811e-2,.6239977075,.4140045187
-.117757221e-1,.6410787225,.4714918654
-.303117688e-1,.6570715525,.5288071313
-.497394437e-1,.6719805945,.5861395368
.1237221020,.4312120746,-.2111710525
.1178493325,.4625973411,-.1364111866
.1101599544,.4917744878,-.6576597411e-1
.1009138060,.5190593528,.1683442295e-2
.902960865e-1,.5446770488,.6660795199e-1
.784428326e-1,.5687929308,.1295196571
.654558964e-1,.5915308028,.1908244703
.514122406e-1,.6129842128,.2508550817
.363699242e-1,.6332237338,.3098927625
.203720610e-1,.6523017718,.3681824824
.34494606e-2,.6702557748,.4259439142
-.143776404e-1,.6871103408,.4833798786
-.330985065e-1,.7028785198,.5406832184
.1265673552,.4468061103,-.2769749063
.1224754753,.4803560794,-.1978377696
.1162640241,.5113296720,-.1238736668
.1082880980,.5401585140,-.5384105898e-1
.987920269e-1,.5671395940,.1312693047e-1
.879510253e-1,.5924858870,.7766854895e-1
.758943194e-1,.6163544700,.1402743832
.627188865e-1,.6388632200,.2013356489
.484980432e-1,.6601012560,.2611747727
.332870133e-1,.6801357040,.3200657752
.171266139e-1,.6990161750,.3782485282
.457137e-4,.7167777620,.4359392266
-.179371622e-1,.7334429810,.4933384981
.1259702955,.4597781050,-.3507802620
.1241347004,.4960706269,-.2656916360
.1197235044,.5292324615,-.1873618690
.1132506809,.5598883525,-.1140032459
.1050524458,.5884469735,-.4443857243e-1
.953616815e-1,.6151914015,.2216080080e-1
.843461626e-1,.6403255645,.8640890488e-1
.721299965e-1,.6640003205,.1487802589
.588064717e-1,.6863290625,.2096550621
.444461298e-1,.7073975365,.2693480239
.291020215e-1,.7272702245,.3281277101
.128131916e-1,.7459945855,.3862301706
-.43929968e-2,.7636038825,.4438690129
.1209501438,.4690513782,-.4356089560
.1221501462,.5090337235,-.3419409820
.1200275683,.5449774122,-.2576316267
.1153919986,.5778665172,-.1798635164
.1087345606,.6082980042,-.1069279217
.1003786914,.6366650192,-.3769108294e-1
.905494567e-1,.6632411332,.2864959832e-1
.794095097e-1,.6882240522,.9269155646e-1
.670794163e-1,.7117603272,.1548982459
.536498974e-1,.7339602332,.2156422540
.391895551e-1,.7549071532,.2752329459
.237499126e-1,.7746637172,.3339351171
.73687638e-2,.7932758642,.3919821786
.1097531257,.4726327326,-.5371316664
.1154513979,.5180828038,-.4298567647
.1164275904,.5577931018,-.3368403758
.1141416371,.5935382068,-.2529719076
.1093777282,.6262713128,-.1755229199
.1026143388,.6565740148,-.1028283307
.941677765e-1,.6848307908,-.3377859863e-1
.842587174e-1,.7113098758,.3241428290e-1
.730469260e-1,.7362054668,.9633840925e-1
.606509623e-1,.7596616758,.1584509899
.471600890e-1,.7817870028,.2191203059
.326418012e-1,.8026634898,.2786527025
.171467494e-1,.8223527038,.3373108382
.883873222e-1,.4658380555,-.6688931668
.1020991127,.5210286981,-.5356757155
.1077244350,.5663900962,-.4286282416
.1086532001,.6060427472,-.3357495688
.1063325156,.6417456342,-.2519745717
.1015412664,.6744455082,-.1745933607
.947552738e-1,.7047207352,-.1019500197
.862893413e-1,.7329539662,-.3294010533e-1
.763632187e-1,.7594123102,.3322130975e-1
.651360591e-1,.7842892212,.9712034521e-1
.527259968e-1,.8077282932,.1592128865
.392219842e-1,.8298376492,.2198663047
.246912815e-1,.8506990462,.2793863051
.74052878e-1,.2817237618,.1835063906
.60133225e-1,.3033278983,.2436748655
.45208766e-1,.3237106775,.3028186749
.29324258e-1,.3429264997,.3611865177
.12511885e-1,.3610144863,.4190006275
-.5206908e-2,.3780007028,.4764654716
-.23820280e-1,.3938995434,.5337747635
-.43325382e-1,.4087144698,.5911175429
-.63728218e-1,.4224381855,.6486838519
-.85043947e-1,.4350522635,.7066704911
-.107297664,.4465262005,.7652873664
-.130525770,.4568157505,.8247650037
-.154778092,.4658603475,.8853640640
.91699834e-1,.3056938673,.1464270170
.78417194e-1,.3280723063,.2073528679
.64095391e-1,.3491876240,.2670858020
.48788070e-1,.3691050274,.3258958717
.32534762e-1,.3878725668,.3840201652
.15363245e-1,.4055240070,.4416729927
-.2708926e-2,.4220806870,.4990538096
-.21673497e-1,.4375526392,.5563537971
-.41531100e-1,.4519390952,.6137617189
-.62291285e-1,.4652284462,.6714695700
-.83973002e-1,.4773976592,.7296785086
-.106605603,.4884110562,.7886055767
-.130230472,.4982183332,.8484918947
.1080907280,.3292334097,.1072218237
.954992961e-1,.3524520232,.1690599034
.818260476e-1,.3743556696,.2295116515
.671352602e-1,.3950224809,.2888747168
.514750344e-1,.4145109223,.3474056120
.348803404e-1,.4328635012,.4053319814
.17375042e-1,.4501092242,.4628618198
-.1026814e-2,.4662651662,.5201908154
-.20320277e-1,.4813373442,.5775085982
-.40509241e-1,.4953210242,.6350044598
-.61606643e-1,.5082004832,.6928730568
-.83635123e-1,.5199481992,.7513205616
-.106628240,.5305233822,.8105718431
.1231217844,.3522505560,.6567071914e-1
.1112858577,.3763874988,.1286088175
.983149514e-1,.3991448559,.1899346613
.842863444e-1,.4206165584,.2499818357
.692583403e-1,.4408734762,.3090322444
.532742515e-1,.4599682562,.3673313029
.363650530e-1,.4779385492,.4250989894
.185511271e-1,.4948091302,.4825383195
-.1566558e-3,.5105932132,.5398422375
-.197563840e-1,.5252931202,.5971996221
-.402550088e-1,.5389004022,.6548009521
-.616686940e-1,.5513954132,.7128441009
-.840236580e-1,.5627462822,.7715407749
.1366687348,.3746342983,.2149814997e-1
.1256659659,.3997839599,.8576752496e-1
.1134614626,.4234728926,.1481558716
.1001487790,.4458148135,.2090441811
.857986591e-1,.4668957115,.2687477130
.704643091e-1,.4867802605,.3275354300
.541849038e-1,.5055160785,.3856436560
.369879153e-1,.5231365575,.4432861812
.188906291e-1,.5396627095,.5006621468
-.989549e-4,.5551042575,.5579625875
-.199817164e-1,.5694601325,.6153762795
-.407674595e-1,.5827184175,.6730953919
-.624754114e-1,.5948557415,.7313214324
.1485805725,.3962476958,-.2564560054e-1
.1385066531,.4225263897,.4024514464e-1
.1271462178,.4472413017,.1039282846
.1146137649,.4705316068,.1658484373
.1009955935,.4925021998,.2263651857
.863569415e-1,.5132323828,.2857787623
.707466723e-1,.5327815478,.3443475031
.542003883e-1,.5511929688,.4023003175
.367424993e-1,.5684963198,.4598460389
.183875450e-1,.5847092708,.5171808390
-.8590558e-3,.5998384108,.5744945200
-.210007321e-1,.6138795698,.6319762525
-.420499324e-1,.6268176188,.6898202646
.1586703942,.4169178177,-.7621240612e-1
.1496460357,.4444722718,-.8328141022e-2
.1392257598,.4703299635,.5694172505e-1
.1275518810,.4946638805,.1201292632
.1147307146,.5176032485,.1816539452
.1008425356,.5392456435,.2418579154
.859479639e-1,.5596647505,.3010291151
.700921762e-1,.5789154825,.3594172086
.533077096e-1,.5970373895,.4172451008
.356163145e-1,.6140569095,.4747176871
.170301148e-1,.6299887785,.5320289174
-.24477711e-2,.6448367865,.5893678883
-.228230759e-1,.6585939665,.6469245281
.1667014948,.4364201998,-.1307997960
.1588832796,.4654407428,-.6043132406e-1
.1495249055,.4925891952,.6800774444e-2
.1388070271,.5180851472,.7155251568e-1
.1268625876,.5420901912,.1343262092
.1137912319,.5647254502,.1955210925
.996682728e-1,.5860824662,.2554651965
.845504903e-1,.6062302562,.3144365013
.684799633e-1,.6252199692,.3726776636
.514866288e-1,.6430879942,.4304067717
.335899560e-1,.6598579952,.4878256421
.147999729e-1,.6755421612,.5451266006
-.48822238e-2,.6901418262,.6024984396
.1723651506,.4544535664,-.1902221292
.1659632873,.4851957090,-.1166998837
.1578255069,.5138278150,-.4700860166e-1
.1481877561,.5406366810,.1969057936e-1
.1372198072,.5658286670,.8401818330e-1
.1250471449,.5895563030,.1464530478
.1117640528,.6119341920,.2073783317
.974418236e-1,.6330489910,.2671108214
.821340951e-1,.6529658990,.3259205535
.658803943e-1,.6717329610,.3840446046
.487084934e-1,.6893839350,.4416972755
.306359449e-1,.7059401560,.4990780179
.116709975e-1,.7214116500,.5563780118
.1752428237,.4705961124,-.2556344737
.1705521261,.5034182068,-.1780036373
.1638492080,.5337944118,-.1051716556
.1554544284,.5621141318,-.3601522684e-1
.1455909604,.5886486338,.3026195063e-1
.1344202131,.6135941138,.9425328427e-1
.1220618882,.6370960738,.1564195406
.1086060798,.6592640238,.2171314519
.941209139e-1,.6801807708,.2766970841
.786575387e-1,.6999084878,.3353803117
.622534406e-1,.7184927388,.3934139027
.449346499e-1,.7359651648,.4510092568
.267171634e-1,.7523452118,.5083640660
.1747362537,.4842234479,-.3287668477
.1721949432,.5196581608,-.2455834358
.1672295599,.5521463698,-.1686322179
.1602993268,.5822462718,-.9631449641e-1
.1517096143,.6103290448,-.2755782216e-1
.1416743277,.6366546988,.3840334819e-1
.1303487570,.6614119888,.1021426710
.1178483431,.6847412368,.1641076785
.1042600724,.7067481768,.2246599729
.896497102e-1,.7275127448,.2841011989
.740665351e-1,.7470948428,.3426906973
.575464953e-1,.7655381648,.4006580729
.401142970e-1,.7828727428,.4582126204
.1699224388,.4943362160,-.4124204005
.1702374243,.5332428075,-.3213124668
.1674637806,.5683951145,-.2387479434
.1623141629,.6006593845,-.1622484150
.1552308138,.6305731695,-.9027366921e-1
.1465093709,.6584958235,-.2178418415e-1
.1363576770,.6846799825,.4396549654e-1
.1249269941,.7093095065,.1075360737
.1123299427,.7325212895,.1693663685
.986514436e-1,.7544185545,.2298119535
.839556848e-1,.7750793225,.2891702316
.682906941e-1,.7945619725,.3476975454
.516913807e-1,.8129089365,.4056214198
.1591970672,.4991319247,-.5117114560
.1636606167,.5430811685,-.4082587163
.1638214830,.5818004255,-.3175919554
.1609330890,.6168132525,-.2353315253
.1556921529,.6489665225,-.1590546358
.1485327156,.6787878205,-.8724928170e-1
.1397456856,.7066307525,-.1889193124e-1
.1295359451,.7327443535,.4675308189e-1
.1180527812,.7573100865,.1102401244
.1054074286,.7804631595,.1720037485
.916837898e-1,.8023055565,.2323965650
.769452738e-1,.8229143525,.2917138945
.612392868e-1,.8423471705,.3502106105
.103949477,.2772150625,.2398476322
.89088003e-1,.2976744006,.2990493870
.73264010e-1,.3169637787,.3574601151
.56510424e-1,.3351232225,.4153034681
.38849339e-1,.3521795847,.4727848247
.20293190e-1,.3681479803,.5300984018
.845393e-3,.3830325625,.5874333669
-.19499483e-1,.3968267284,.6449795258
-.40755992e-1,.4095127895,.7029330668
-.62948559e-1,.4210610560,.7615028435
-.86112802e-1,.4314282330,.8209178002
-.110297606,.4405549000,.8814363247
-.135568236,.4483617270,.9433587181
.122718623,.3018349683,.2044698449
.108445151,.3230090327,.2642533469
.93183940e-1,.3429824836,.3231019191
.76975135e-1,.3618041178,.3812539715
.59847036e-1,.3795083324,.4389247051
.41817660e-1,.3961170309,.4963141321
.22895694e-1,.4116407693,.5536136906
.3080926e-2,.4260792925,.6110121299
-.17635758e-1,.4394215195,.6687011629
-.39272843e-1,.4516449835,.7268813625
-.61859150e-1,.4627146525,.7857688419
-.85435440e-1,.4725809785,.8456033512
-.110056868,.4811769215,.9066587394
.1403193707,.3261108179,.1671665535
.1266785797,.3480539173,.2276565339
.1120185209,.3687580792,.2870492995
.963877428e-1,.3882823148,.3456024363
.798215886e-1,.4066695838,.4035443309
.62344243e-1,.4239492843,.4610834705
.43970043e-1,.4401388430,.5184158262
.24704216e-1,.4552446130,.5757311265
.4543142e-2,.4692621940,.6332185919
-.16525828e-1,.4821762120,.6910726221
-.38525018e-1,.4939595310,.7494989336
-.61487626e-1,.5045717980,.8087216916
-.85459617e-1,.5139571440,.8689923920
.1566639269,.3499667921,.1277631806
.1437079132,.3727422501,.1891086043
.1296932840,.3942309429,.2491712040
.1146785712,.4145040170,.3082334735
