-.2199255965,.4196705706,.6312184315e-1
-.2317143305,.4438648770,.1261321020
-.2446415965,.4666752805,.1875154508
-.2586292485,.4881967643,.2476079353
-.2736183145,.5085010118,.3066931952
-.2895649425,.5276413264,.3650178678
-.3064377035,.5456559100,.4228027703
-.3242158165,.5625700217,.4802514549
-.1766543538,.2858936556,-.3559338788
-.1783203181,.3223923656,-.2703818186
-.1825995317,.3557146272,-.1917194756
-.1889641277,.3865020689,-.1181110694
-.1970701877,.4151727313,-.4835316489e-1
-.2066801429,.4420153827,.1839851475e-1
-.2176231655,.4672376672,.8276792954e-1
-.2297730430,.4909929984,.1452361948
-.2430349690,.5133966162,.2061880341
-.2573372530,.5345356581,.2659413307
-.2726259500,.5544756994,.3247668956
-.2888612800,.5732650919,.3829023487
-.3060152550,.5909378546,.4405623580
-.1737315632,.2975589836,-.4248290639
-.1729486477,.3370343533,-.3323731144
-.1753763813,.3726071210,-.2488856241
-.1802520210,.4052044143,-.1717131712
-.1871078589,.4353947440,-.9922781008e-1
-.1956336905,.4635551665,-.3034070256e-1
-.2056126134,.4899493314,.3572362872e-1
-.2168873529,.5147684081,.9954523837e-1
-.2293410830,.5381544010,.1615759509
-.2428858061,.5602142728,.2221803316
-.2574549870,.5810288982,.2816621130
-.2729987362,.6006589189,.3402821065
-.2894806025,.6191486416,.3982709439
-.1756870379,.3053005478,-.5061929191
-.1714810528,.3489367160,-.4035299032
-.1714936353,.3874451420,-.3133579448
-.1745116562,.4223004034,-.2314397630
-.1798560074,.4543279719,-.1554139846
-.1871017656,.4840443465,-.8379995531e-1
-.1959633051,.5117967097,-.1559198722e-1
-.2062390610,.5378300688,.4993463761e-1
-.2177819633,.5623231892,.1133271792
-.2304823381,.5854093808,.1750153908
-.2442574313,.6071892338,.2353485608
-.2590447150,.6277387513,.2946196633
-.2747974858,.6471147026,.3530819172
-.1847095148,.3066325342,-.6071829809
-.1751348439,.3567944365,-.4875716878
-.1717721558,.3994055638,-.3874746918
-.1723607650,.4372138186,-.2989326169
-.1758129476,.4715413499,-.2181506689
-.1815056443,.5031454976,-.1429626887
-.1890433708,.5325069789,-.7198903989e-1
-.1981577236,.5599520439,-.4282073584e-2
-.2086580346,.5857124522,.6084704028e-1
-.2204045641,.6099580598,.1239221697
-.2332928225,.6328158761,.1853572267
-.2472438888,.6543818304,.2454904792
-.2621981869,.6747283390,.3046071355
-.2065523983,.2947853262,-.7475982701
-.1862276034,.3580141921,-.5919749120
-.1775605282,.4070728919,-.4752926489
-.1747331737,.4490333124,-.3768082137
-.1756939067,.4863892449,-.2893077645
-.1794295491,.5203722268,-.2092590666
-.1853513094,.5516979432,-.1346150789
-.1930820304,.5808248366,-.6405890116e-1
-.2023641660,.6080659585,.3320628601e-2
-.2130139846,.6336446375,.6818958856e-1
-.2248964481,.6577250152,.1310569230
-.2379104150,.6804300305,.1923263861
-.2519794544,.7018525865,.2523291669
-.2746574108+.3789999555e-1*I,.2294016224+.4606810916e-1*I,-1.047197551+.1391911459*I
-.2108278291,.3455113203,-.7374516960
-.1914570512,.4075805600,-.5851001790
-.1831874068,.4561561771,-.4696932352
-.1805989596,.4978262006,-.3719241454
-.1817273767,.5349783101,-.2848900632
-.1855915109,.5688051071,-.2051714549
-.1916175284,.6000040975,-.1307732023
-.1994363518,.6290239012,-.6040603158e-1
-.2087952564,.6561717087,.6825044728e-2
-.2195136086,.6816670842,.7157597090e-1
-.2314584796,.7056716040,.1343490149
-.2445302354,.7283063760,.1955433801
-.2645630117+.1017789077*I,.2621562538+.1237140470*I,-1.047197551+.3667249392*I
-.2834637503+.3982664489e-1*I,.2777057937+.4840998519e-1*I,-1.047197552+.1462181222*I
-.2204923530,.3927723523,-.7407698810
-.2008132532,.4552163624,-.5873622352
-.1924136958,.5039498934,-.4715389090
-.1897468534,.5457152076,-.3735353854
-.1908201365,.5829343329,-.2863481737
-.1946419716,.6168125464,-.2065210588
-.2006336384,.6480532904,-.1320419712
-.2084234158,.6771083993,-.6161259840e-1
-.2177569989,.7042869859,.5667348830e-2
-.2284527367,.7298098492,.7045713743e-1
-.2403770082,.7538394082,.1332612263
-.2567043200+.1434329747*I,.2958167323+.1743452958*I,-1.047197552+.5065328765*I
-.2756050592+.1061509395*I,.3113662729+.1290283281*I,-1.047197552+.3817675744*I
-.2945057981+.4946314063e-1*I,.3269158132+.6012331474e-1*I,-1.047197552+.1812509464*I
-.2366521173,.4357616965,-.7604869666
-.2150660376,.5005236755,-.6005208267
-.2058938780,.5501963168,-.4822113178
-.2027668511,.5925209930,-.3828258135
-.2035186573,.6301308797,-.2947416669
-.2070948660,.6643076558,-.2142813967
-.2128876290,.6957901704,-.1393317461
-.2205095687,.7250492898,-.6854083632e-1
-.2296970675,.7524054448,-.9771194031e-3
-.2402625109,.7780866828,.6403821267e-1
-.2515602894+.1799755343*I,.3305771173+.2187634177*I,-1.047197551+.6221856416*I
-.2704610276+.1500174782*I,.3461266568+.1823488751*I,-1.047197552+.5278741676*I
-.2893617667+.1144677710*I,.3616761973+.1391375828*I,-1.047197552+.4101549897*I
-.3082625058+.6468441602e-1*I,.3772257378+.7862504189e-1*I,-1.047197551+.2361268034*I
-.2619624262,.4720280169,-.8045949373
-.2355977417,.5425984737,-.6280209279
-.2247118862,.5943541422,-.5041400522
-.2206008017,.6378749582,-.4017673181
-.2206775855,.6763053464,-.3117780430
-.2237437170,.7111021296,-.2299865349
-.2291265195,.7430829594,-.1540538491
-.2364044151,.7727602695,-.8251082155e-1
-.2452937221,.8004788815,-.1435832310e-1
-.2498668286+.2151354487*I,.3667355772+.2615009104*I,-1.047197551+.7269248827*I
-.2687675687+.1890883460*I,.3822851183+.2298402000*I,-1.047197552+.6499515922*I
-.2876683075+.1603406396*I,.3978346586+.1948968589*I,-1.047197552+.5608930585*I
-.3065690460+.1270724813*I,.4133841987+.1544588292*I,-1.047197551+.4525838912*I
-.3254697854+.8407904832e-1*I,.4289337393+.1021995576*I,-1.047197551+.3050335398*I
-.3053158666,.4919549011,-.9028009457
-.2651068984,.5793533273,-.6771253798
-.2507808217,.6352906452,-.5418568255
-.2448438526,.6810308559,-.4338364239
-.2437131257,.7209289938,-.3403704312
-.2458861807,.7568113285,-.2561975054
-.2505613555,.7896522916,-.1785280466
-.2572514626,.8200440696,-.1056669005
-.2528641149+.2510483146*I,.4047945998+.3051536287*I,-1.047197551+.8273177070*I
-.2717648535+.2275286072*I,.4203441397+.2765650118*I,-1.047197552+.7623124201*I
-.2906655926+.2024767983*I,.4358936803+.2461140987*I,-1.047197551+.6899583359*I
-.3095663317+.1752370308*I,.4514432209+.2130036836*I,-1.047197551+.6075767411*I
-.3284670711+.1445778564*I,.4669927615+.1757369196*I,-1.047197551+.5102591283*I
-.3473678100+.1076153923*I,.4825423020+.1308083964*I,-1.047197551+.3867880204*I
-.3662685492+.5237332448e-1*I,.4980918423+.6366069429e-1*I,-1.047197551+.1917895049*I
-.3102589014,.6046962722,-.7675630588
-.2879557702,.6703298398,-.6051198064
-.2785065873,.7203392064,-.4859148326
-.2752170702,.7628613931,-.3860390176
-.2758562468,.8006081826,-.2976390178
-.2793468112,.8348890606,-.2169567574
-.2629794373+.2900145267*I,.4457376544+.3525177426*I,-1.047197551+.9290227609*I
-.2818801767+.2683234988*I,.4612871945+.3261519173*I,-1.047197552+.8733089751*I
-.3007809158+.2457033794*I,.4768367356+.2986567659*I,-1.047197552+.8127896263*I
-.3196816551+.2218701817*I,.4923862761+.2696870963*I,-1.047197551+.7462534567*I
-.3385823941+.1963827418*I,.5079358163+.2387066656*I,-1.047197552+.6718644473*I
-.3574831332+.1684920208*I,.5234853570+.2048050057*I,-1.047197551+.5865805872*I
-.3763838725+.1367352089*I,.5390348975+.1662040440*I,-1.047197551+.4846040140*I
-.3952846115+.9740148936e-1*I,.5545844379+.1183932181*I,-1.047197552+.3515837555*I
-.4141853505+.2758911586e-1*I,.5701339785+.3353505410e-1*I,-1.047197551+.1014767559*I
-.3465924192,.6908180916,-.7228583552
-.3285368668,.7512886532,-.5749977065
-.3208373942,.7991712175,-.4614122495
-.3185964856,.8404188016,-.3646788618
-.1416820220,.2792148993,-.2166459019
-.1474137060,.3107716570,-.1415509038
-.1549842250,.3400932774,-.7064852196e-1
-.1641270500,.3675037349,-.2997405740e-2
-.1746527050,.3932333385,.6208735561e-1
-.1864222560,.4174509624,.1251270598
-.1993317890,.4402829188,.1865338777
-.2133028070,.4618246209,.2466448630
-.2282760650,.4821480849,.3057443671
-.2442074880,.5013068809,.3640795251
-.2610654640,.5193394358,.4218715011
-.2788290500,.5362712050,.4793240661
-.2974868630,.5521160268,.5366305653
-.1320199821,.2960211569,-.2694891705
-.1363243965,.3293127882,-.1908904497
-.1427096364,.3600751366,-.1173297916
-.1508332652,.3887244437,-.4760880372e-1
-.1604586127,.4155483855,.1911378879e-1
-.1714154384,.4407538922,.8346003878e-1
-.1835779320,.4644938884,.1459097971
-.1968515760,.4868832610,.2068469231
-.2111649040,.5080088816,.2665886908
-.2264641360,.5279361163,.3254054801
-.2427096350,.5467131475,.3835346120
-.2598735330,.5643738488,.4411905497
-.2779381920,.5809396595,.4985728464
-.1253344754,.3110014308,-.3289045211
-.1278714644,.3464413965,-.2457095568
-.1328334290,.3789337608,-.1687499259
-.1397608253,.4090371092,-.9642582871e-1
-.1483481017,.4371228456,-.2766418592e-1
-.1583812371,.4634511140,.3830091258e-1
-.1697048668,.4882107631,.1020433676
-.1822034977,.5115421787,.1640108780
-.1957901045,.5335511403,.2245651549
-.2103988927,.5543176220,.2840079241
-.2259805606,.5739015520,.3425985815
-.2424991414,.5923466476,.4005667719
-.2599299105,.6096829618,.4581218144
-.1222843407,.3234732290,-.3968022687
-.1225406815,.3616853650,-.3073225629
-.1257417404,.3963181404,-.2258853132
-.1312325795,.4281676497,-.1502133774
-.1386008926,.4577350555,-.7886943075e-1
-.1475684024,.4853586108,-.1087256921e-1
-.1579381782,.5112776872,.5448663909e-1
-.1695662578,.5356672726,.1177455164
-.1823451630,.5586580100,.1793270967
-.1961937568,.5803485211,.2395759958
-.2110507558,.6008132987,.2987819001
-.2268704523,.6201079005,.3571957052
-.2436198644,.6382724168,.4150411638
-.1239207398,.3323079374,-.4763845825
-.1210464214,.3743254422,-.3777592123
-.1219743083,.4117212998,-.2901671894
-.1256848372,.4457348074,-.2100538088
-.1315862512,.4770852559,-.1353617261
-.1392997983,.5062330247,-.6476858866e-1
-.1485669808,.5334923214,.2639954564e-2
-.1592034604,.5590872146,.6753197847e-1
-.1710737840,.5831823485,.1304177358
-.1840765153,.6059010208,.1917018749
-.1981350025,.6273364033,.2517162089
-.2131914279,.6475587749,.3107413871
-.2292028703,.6666203062,.3690219411
-.1321644672,.3353601739,-.5738147817
-.1245307062,.3831628645,-.4604386151
-.1223302152,.4243613202,-.3638252905
-.1237330497,.4611798705,-.2775502926
-.1278084790,.4947498355,-.1983713104
-.1340065088,.5257397419,-.1243759118
-.1419710468,.5545824268,-.5431915908e-1
-.1514571627,.5815756064,.1266782880e-1
-.1622892543,.6069327296,.7722456907e-1
-.1743378296,.6308111952,.1398424828
-.1875057205,.6533291134,.2009133610
-.2017194653,.6745757778,.2607600302
-.2169237296,.6946184478,.3196567947
-.1515844562,.3273201923,-.7045611101
-.1350889446,.3858944956,-.5619950116
-.1281000656,.4329133205,-.4506655702
-.1263002179,.4736247864,-.3552379471
-.1279891900,.5100955323,-.2697488610
-.1322862767,.5433960683,-.1911316505
-.1386655129,.5741657152,-.1175571096
-.1467840318,.6028212336,-.4782538818e-1
-.1564049022,.6296506174,.1890566117e-1
-.1673577124,.6548610047,.8325864632e-1
-.1795165354,.6786054623,.1457137856
-.1927867704,.7009989790,.2066551893
-.2070968845,.7221285050,.2664003085
-.2118375858,.2724598052,-.9751450467
-.1577640279,.3767108845,-.6993648649
-.1416944929,.4347674055,-.5582379248
-.1349062442,.4815423615,-.4475425042
-.1332325221,.5221005201,-.3524864469
-.1350121493,.5584610722,-.2672451436
-.1393797463,.5916759020,-.1888056917
-.1458167871,.6223752863,-.1153646323
-.1539845286,.6509709738,-.4573615643e-1
-.1636485453,.6777479123,.2091351920e-1
-.1746400589,.7029112552,.8520169432e-1
-.1868342681,.7266127002,.1476050599
-.2001373828,.7489662512,.2085053043
-.2219846364+.9310084122e-1*I,.2817492710+.1131657050*I,-1.047197551+.3366323075*I
-.2371657622,.3018200672,-1.033492353
-.1691667952,.4229977233,-.7067772587
-.1524873676,.4817955804,-.5635889058
-.1454127483,.5289186249,-.4519881077
-.1435592144,.5696953478,-.3564020735
-.1452096830,.6062128948,-.2708075721
-.1494768631,.6395497829,-.1921148273
-.1558316055,.6703492028,-.1184836117
-.1639292818,.6990300549,-.4870807817e-1
-.1735318930,.7258816330,.1805749206e-1
-.1844683312,.7511119210,.8243796768e-1
-.1966121920,.7748745660,.1449150687
-.2149679673+.1381207528*I,.3157509139+.1678881970*I,-1.047197551+.4891584236*I
-.2338687061+.9923915740e-1*I,.3313004540+.1206269359*I,-1.047197552+.3579497310*I
-.2527694452+.3321226467e-1*I,.3468499945+.4037009005e-1*I,-1.047197552+.1220659168*I
-.1870609363,.4652435595,-.7301744155
-.1683541984,.5265056482,-.5800932383
-.1603691663,.5747353152,-.4655967458
-.1579534927,.6161953289,-.3683432767
-.1592037967,.6531992829,-.2816469926
-.1631616252,.6869121933,-.2021681607
-.1692638306,.7180185756,-.1279487406
-.1771471392,.7469599962,-.5771928190e-1
-.1865623040,.7740394192,.9403551318e-2
-.1973309313,.7994736832,.7406837885e-1
-.2108746628+.1766257410*I,.3509370238+.2146916850*I,-1.047197552+.6118702650*I
-.2297754016+.1461776352*I,.3664865638+.1776814788*I,-1.047197552+.5154550165*I
-.2486761406+.1096481918*I,.3820361041+.1332792996*I,-1.047197552+.3937414896*I
-.2675768796+.5622390375e-1*I,.3975856446+.6834114088e-1*I,-1.047197551+.2057010411*I
-.2142495422,.5009296791,-.7778303708
-.1908735944,.5678672734,-.6116705448
-.1810233456,.6183641438,-.4911655162
-.1775009196,.6611694348,-.3905848360
-.1779794616,.6991114790,-.3017329401
-.1813482506,.7335403771,-.2207339632
-.1869738012,.7652261417,-.1453854710
-.1944551052,.7946562057,-.7428889103e-1
-.2035205070,.8221607717,-.6485628203e-2
-.2105697778+.2134611824*I,.3876580970+.2594658104*I,-1.047197551+.7220833579*I
-.2294705169+.1872674139*I,.4032076372+.2276268254*I,-1.047197552+.6444380297*I
-.2483712558+.1582910885*I,.4187571775+.1924055937*I,-1.047197551+.5543806409*I
-.2672719949+.1246058962*I,.4343067182+.1514606518*I,-1.047197551+.4443389706*I
-.2861727341+.8050320769e-1*I,.4498562586+.9785306053e-1*I,-1.047197552+.2924253525*I
-.2594497948,.5208621804,-.8782970094
-.2231762456,.6034770356,-.6666960821
-.2096256972,.6584716855,-.5340158255
-.2040832019,.7037324062,-.4272263333
-.2032083992,.7433194639,-.3345042056
-.2055686481,.7789742612,-.2508355685
-.2103910651,.8116362482,-.1735315378
-.2172028407,.8418801362,-.1009465821
-.2155725915+.2512255399*I,.4265297034+.3053690487*I,-1.047197552+.8277969858*I
-.2344733306+.2277159173*I,.4420792440+.2767926903*I,-1.047197552+.7628412080*I
-.2533740702+.2026780266*I,.4576287845+.2463586948*I,-1.047197552+.6905524983*I
-.2722748092+.1754588340*I,.4731783252+.2132732893*I,-1.047197552+.6082631707*I
-.2911755482+.1448336937*I,.4887278657+.1760478942*I,-1.047197552+.5110909126*I
-.3100762869+.1079415202*I,.5042774061+.1312048106*I,-1.047197551+.3879047941*I
-.3289770265+.5300491364e-1*I,.5198269468+.6442840194e-1*I,-1.047197552+.1940739215*I
-.2733878102,.6259203340,-.7691743546
-.2509188855,.6917554263,-.6061575454
-.2414066796,.7418413987,-.4867485635
-.2380803793,.7844082954,-.3867615918
-.2386941244,.8221859985,-.2982901583
-.2421653806,.8564903455,-.2175577639
-.1028902865,.2841776264,-.1439888692
-.1104041375,.3135681292,-.7296324857e-1
-.1194977705,.3410383781,-.5215567640e-2
-.1299796445,.3668211952,.5994587577e-1
-.1417094315,.3910871543,.1230468280
-.1545822235,.4139637714,.1845024708
-.1685187865,.4355473539,.2446519598
-.1834593075,.4559106100,.3037811304
-.1993592545,.4751076661,.3621381627
-.2161866305,.4931774145,.4199449367
-.2339201595,.5101457196,.4774056893
-.2525481485,.5260267927,.5347140105
-.2720678945,.5408239193,.5920589121
-.907865157e-1,.3028107734,-.1914448417
-.971579533e-1,.3335898992,-.1178522645
-.1052698351,.3622534858,-.4810659602e-1
-.1148848901,.3890899371,.1863543984e-1
-.1258324858,.4143066632,.8299717703e-1
-.1379865430,.4380569137,.1454593073
-.1512523510,.4604558122,.2064062691
-.1655582930,.4815904083,.2661557440
-.1808504800,.5015262080,.3249783998
-.1970891780,.5203115057,.3831117563
-.2142464400,.5379802735,.4407704146
-.2323045570,.5545540357,.4981540109
-.2512551350,.5700429967,.5554538102
-.811851223e-1,.3201291154,-.2440897854
-.861909390e-1,.3525681765,-.1672379871
-.931547309e-1,.3826272866,-.9499567556e-1
-.1017732858,.4106750012,-.2629770797e-1
-.1118340394,.4369696993,.3961701285e-1
-.1231825911,.4616990561,.1033192791
-.1357041211,.4850026367,.1652547003
-.1493120983,.5069856227,.2257835492
-.1639411036,.5277275306,.2852065349
-.1795421324,.5472879263,.3437823352
-.1960794655,.5657102284,.4017400990
-.2135285915,.5830242305,.4592888131
-.2318748785,.5992477165,.5166247426
-.745197984e-1,.3357071395,-.3030973202
-.778478026e-1,.3701856126,-.2219919886
-.834405557e-1,.4019112434,-.1465649233
-.908943251e-1,.4313747762,-.7540820752e-1
-.999358546e-1,.4589083597,-.7557858695e-2
-.1103713931,.4847475000,.5768508702e-1
-.1220591196,.5090645839,.1208511261
-.1348930688,.5319884137,.1823586650
-.1487932259,.5536162494,.2425491041
-.1636991700,.5740215332,.3017098581
-.1795658850,.5932589831,.3600902250
-.1963609681,.6113679854,.4179128527
-.2140627851,.6283748366,.4753824727
-.714191259e-1,.3489085364,-.3702508001
-.726046111e-1,.3859912795,-.2833750014
-.765125829e-1,.4197647915,-.2037686759
-.825742296e-1,.4509204735,-.1294541333
-.904231987e-1,.4799036346,-.5915140678e-1
-.998083962e-1,.5070194832,.8029025504e-2
-.1105502393,.5324863046,.7273967019e-1
-.1225165148,.5564648072,.1354805360
-.1356081022,.5790754735,.1966492797
-.1497500787,.6004093733,.2565728315
-.1648859696,.6205351528,.3155283944
-.1809739417,.6395036610,.3737580756
-.1979842664,.6573510332,.4314795914
-.728654157e-1,.3587005602,-.4484810272
-.711538867e-1,.3993046749,-.3533136743
-.729063103e-1,.4356982921,-.2679980828
-.772527345e-1,.4689388584,-.1895053003
-.836724096e-1,.4996593508,-.1160241801
-.918253585e-1,.5282730195,-.4636470901e-1
-.1014764047,.5550657233,.2030939812e-1
-.1124562814,.5802432114,.8461703445e-1
-.1246398490,.6039575918,.1470359457
-.1379330739,.6263231636,.2079485475
-.1522648535,.6474263548,.2676711043
-.1675816955,.6673321850,.3264732811
-.1838441958,.6860885510,.3845918979
-.805917219e-1,.3631823162,-.5432426650
-.745841754e-1,.4090083154,-.4350014420
-.734079474e-1,.4489617614,-.3414028162
-.755478387e-1,.4848844054,-.2571402783
-.801969884e-1,.5177570029,-.1794060120
-.868656253e-1,.5481748781,-.1064959513
-.952310731e-1,.5765302500,-.3727892664e-1
-.1050687324,.6030961227,.2904610908e-1
-.1162162586,.6280698299,.9307559617e-1
-.1285532974,.6515976630,.1552723243
-.1419892831,.6737897075,.2160084236
-.1564557307,.6947292065,.2755929402
-.1719012102,.7144786755,.3342904409
-.984291484e-1,.3579634276,-.6672890726
-.848351915e-1,.4130108401,-.5344642488
-.792703562e-1,.4582987151,-.4276051999
-.783809867e-1,.4979034802,-.3348408277
-.807305505e-1,.5335712647,-.2511434781
-.855445476e-1,.5662434869,-.1738186071
-.923493566e-1,.5964958425,-.1012178829
-.1008314190,.6247094675,-.3224108614e-1
-.1107717550,.6511505354,.3389415327e-1
-.1220117191,.6760118820,.9777231321e-1
-.1344335303,.6994366725,.1598481848
-.1479484937,.7215327175,.2204883797
-.1624895450,.7423815365,.2799980701
-.1423908185,.3239323442,-.8771658011
-.1062905341,.4063365933,-.6661826982
-.927775011e-1,.4612856410,-.5336273590
-.872543378e-1,.5065228629,-.4268980448
-.863921476e-1,.5460945909,-.3342124796
-.887616504e-1,.5817381391,-.2505687038
-.935913614e-1,.6143912603,-.1732827225
-.1004091733,.6446278114,-.1007114222
-.1089023847,.6728278840,-.3175749705e-1
-.1188525475,.6992570070,.3435966207e-1
-.1301013656,.7241075910,.9822340410e-1
-.1425313025,.7475225060,.1602877620
-.1560538404,.7696093440,.2209188245
-.1796687912+.8414212192e-1*I,.3014486580+.1022762246*I,-1.047197552+.3052555169*I
-.1596434923,.3643134792,-.9032798092
-.1193540459,.4518097279,-.6773156309
-.1050135804,.5077645363,-.5419989460
-.990693852e-1,.5535135302,-.4339559444
-.979339957e-1,.5934173363,-.3404763642
-.1001036509,.6293038027,-.2562942568
-.1047761570,.6621480101,-.1786181536
-.1114640619,.6925424648,-.1057519934
-.1198459932,.7208777998,-.3656903751e-1
-.1296981549,.7474260448,.2972909201e-1
-.1408587286,.7723838928,.9373713122e-1
-.1532077269,.7958971888,.1559167291
-.1735539953+.1330643405*I,.3358157152+.1617420391*I,-1.047197551+.4724924240*I
-.1924547341+.9245248708e-1*I,.3513652552+.1123776191*I,-1.047197552+.3343718890*I
-.2000586681,.3806462598,-1.005562894
-.1390469935,.4933307406,-.7044705348
-.1225589698,.5518959437,-.5619297564
-.1155735931,.5989105110,-.4506113951
-.1137759409,.6396193097,-.3551902436
-.1154664887,.6760881390,-.2697054722
-.1197647999,.7093871873,-.1910913513
-.1261450393,.7401556140,-.1175191315
-.1342644122,.7688100950,-.4778920386e-1
-.1438860306,.7956385690,.1894043165e-1
-.1548395113,.8208481410,.8329229149e-1
-.1706051146+.1736767981*I,.3714655137+.2111071934*I,-1.047197552+.6027409592*I
-.1895058541+.1427746680*I,.3870150543+.1735451123*I,-1.047197552+.5043873390*I
-.2084065932+.1053050717*I,.4025645949+.1280001611*I,-1.047197552+.3788635706*I
-.2273073322+.4772092660e-1*I,.4181141354+.5800562306e-1*I,-1.047197552+.1749323066*I
-.1684198457,.5282166284,-.7565135069
-.1472286743,.5924985888,-.5979091173
-.1382121954,.6419819974,-.4801019242
-.1351770655,.6841949714,-.3809931821
-.1359927740,.7217271834,-.2930878721
-.1396176691,.7558447804,-.2127535171
-.1454497814,.7872794646,-.1378972944
-.1531048771,.8164982826,-.6717808750e-1
-.1623212025,.8438193986,.3293872554e-3
-.1718509077+.2123209661*I,.4088148793+.2580798573*I,-1.047197551+.7187778422*I
-.1907516474+.1860254958*I,.4243644201+.2261172521*I,-1.047197552+.6406677174*I
-.2096523860+.1568896250*I,.4399139600+.1907020900*I,-1.047197552+.5499151664*I
-.2285531253+.1229097224*I,.4554635008+.1493989228*I,-1.047197551+.4386527310*I
-.2474538645+.7799244758e-1*I,.4710130412+.9480118760e-1*I,-1.047197551+.2835453718*I
-.2167806209,.5468206270,-.8635129951
-.1827155701,.6267510140,-.6597744759
-.1696657335,.6811370390,-.5287591292
-.1643831745,.7260818033,-.4227776054
-.1636785035,.7654620632,-.3305479469
-.1661638164,.8009648417,-.2472147383
-.1710849270,.8335068657,-.1701544752
-.1779784430,.8636513967,-.9775410101e-1
-.664550105e-1,.2870072767,-.7644410308e-1
-.754744195e-1,.3145677480,-.8550051412e-2
-.858902955e-1,.3404307871,.5672758045e-1
-.975601835e-1,.3647695544,.1199213199
-.1103776665,.3877134001,.1814509479
-.1242623945,.4093599900,.2416588229
-.1391536895,.4297830801,.3008330363
-.1550063295,.4490376389,.3592233615
-.1717877375,.4671632627,.4170527746
-.1894761305,.4841864312,.4745262194
-.2080593535,.5001219184,.5318376722
-.2275342585,.5149735502,.5891762372
-.2479065475,.5287343952,.6467318283
-.522842268e-1,.3070476693,-.1196326167
-.603560206e-1,.3357599824,-.4980259466e-1
-.699359655e-1,.3626391117,.1700589740e-1
-.808520870e-1,.3878940945,.8142054971e-1
-.929773840e-1,.4116793035,.1439249536
-.1062164810,.4341106696,.2049055326
-.1204972620,.4552758502,.2646813564
-.1357654440,.4752408274,.3235240773
-.1519809760,.4940542852,.3816719049
-.1691156370,.5117505240,.4393399043
-.1871514780,.5283513631,.4967280025
-.2060798800,.5438672786,.5540275979
-.2259011170,.5582979379,.6114274420
-.402891577e-1,.3261143940,-.1671101108
-.472560243e-1,.3561697672,-.9487470075e-1
-.558772229e-1,.3842142695,-.2618210566e-1
-.659403113e-1,.4105061291,.3972836071e-1
-.772909698e-1,.4352329247,.1034272337
-.898144366e-1,.4585341520,.1653599474
-.1034242207,.4805149407,.2258866484
-.1180549362,.5012547701,.2853079647
-.1336576034,.5208131749,.3438825129
-.1501965232,.5392335479,.4018393975
-.1676472025,.5565456621,.4593875800
-.1859950255,.5727672808,.5167233078
-.2052345045,.5879050776,.5740364110
-.307794993e-1,.3439182826,-.2196602675
-.364329906e-1,.3755700858,-.1443786232
-.439377649e-1,.4049716211,-.7333322731e-1
-.530235232e-1,.4324514421,-.5570054554e-2
-.634983925e-1,.4582427757,.5960369130e-1
-.752218188e-1,.4825164660,.1227144659
-.880887345e-1,.5054002246,.1841779394
-.1020197900,.5269905027,.2443336074
-.1169550779,.5473601187,.3034675405
-.1328499953,.5665632881,.3618280880
-.1496724835,.5846389790,.4196372469
-.1674012113,.6016131198,.4770993268
-.1860244372,.6174999823,.5344079588
-.241786713e-1,.3600543317,-.2784040021
-.282296634e-1,.3936540018,-.1991628108
-.344077622e-1,.4246681335,-.1251209022
-.423553938e-1,.4535313685,-.5502827436e-1
-.518267351e-1,.4805425069,.1198693980e-1
-.626456057e-1,.5059157005,.7656614219e-1
-.746821179e-1,.5298088290,.1392020009
-.878388190e-1,.5523403485,.2002871595
-.1020420355,.5735998106,.2601450413
-.1172362655,.5936546774,.3190503702
-.1333804657,.6125548395,.3772435167
-.1504455760,.6303356187,.4349410094
-.1684129017,.6470197400,.4923436867
-.210935494e-1,.3739228270,-.3450264649
-.231165129e-1,.4099876010,-.2604473004
-.276740458e-1,.4429715584,-.1824843901
-.342671864e-1,.4734812011,-.1094019046
-.425680975e-1,.5019150183,-.4005114552e-1
-.523490162e-1,.5285498610,.2637946935e-1
-.634455181e-1,.5535855883,.9049310711e-1
-.757358108e-1,.5771702425,.1527570505
-.891282823e-1,.5994151787,.2135465203
-.1035536574,.6204046025,.2731727336
-.1189598819,.6402017871,.3319017920
-.1353087254,.6588532010,.3899680184
-.1525735213,.6763912590,.4475838567
-.224566939e-1,.3845648677,-.4222528222
-.217719821e-1,.4239208695,-.3300808245
-.242719997e-1,.4594057744,-.2467869749
-.292047310e-1,.4919336727,-.1697553536
-.361078815e-1,.5220664925,-.9737668339e-1
-.446743301e-1,.5501775442,-.2857257233e-1
-.546890833e-1,.5765281560,.3742612157e-1
-.659961317e-1,.6013079610,.1011953776
-.784795308e-1,.6246578910,.1631842860
-.920519263e-1,.6466841262,.2237555230
-.1066472742,.6674669460,.2832114943
-.1222160720,.6870665190,.3418120730
-.1387221898,.7055267640,.3997872373
-.298679635e-1,.3902595408,-.5150212429
-.252481970e-1,.4343986665,-.4110882140
-.249826977e-1,.4732451064,-.3201220917
-.277931422e-1,.5083526819,-.2376552054
-.329720230e-1,.5405813821,-.1612271126
-.400797406e-1,.5704655472,-.8930669233e-1
-.488221795e-1,.5983626795,-.2085957294e-1
-.589924494e-1,.6245242589,.4485655497e-1
-.704399222e-1,.6491333753,.1084003558
-.830524225e-1,.6723263799,.1702092776
-.967453566e-1,.6942060985,.2306379434
-.1114547854,.7148502505,.2899830868
-.1271328816,.7343169695,.3485005788
-.466727509e-1,.3872321587,-.6342769585
-.353770313e-1,.4394860250,-.5090528294
-.310380160e-1,.4832838934,-.4059822690
-.309608681e-1,.5219013883,-.3155545635
-.339117649e-1,.5568382420,-.2334593236
-.392025313e-1,.5889309431,-.1573035668
-.464035416e-1,.6187017090,-.8559046949e-1
-.552264424e-1,.6465010386,-.1730513270e-1
-.654679551e-1,.6725760209,.4828281624e-1
-.769798631e-1,.6971068150,.1117243094
-.896516853e-1,.7202277130,.1734515839
-.1034000727,.7420400270,.2338156439
-.1181620409,.7626203170,.2931106798
-.842972107e-1,.3619836801,-.8197742615
-.561045693e-1,.4347760503,-.6367915907
-.446419011e-1,.4872328438,-.5110192039
-.402108590e-1,.5311425743,-.4076662841
-.400718191e-1,.5698353000,-.3170618914
-.429764970e-1,.6048283334,-.2348445281
-.482304098e-1,.6369658307,-.1585992068
-.554006693e-1,.6667739749,-.8681788826e-1
-.641970347e-1,.6946055588,-.1847929720e-1
-.744150424e-1,.7207091112,.4715085175e-1
-.859056844e-1,.7452657552,.1106260310
-.985579223e-1,.7684104582,.1723801861
-.1122879980,.7902450312,.2327655121
-.1376328016+.7482272737e-1*I,.3212614346+.9094833712e-1*I,-1.047197551+.2723036917*I
-.1025404958,.4024404687,-.8469262277
-.708141967e-1,.4795280618,-.6514819828
-.583500996e-1,.5332021100,-.5224078073
-.533768876e-1,.5777708570,-.4173845068
-.528762337e-1,.6169031315,-.3257432202
-.555121757e-1,.6522228176,-.2428123990
-.605524934e-1,.6846199438,-.1660453019
-.675449405e-1,.7146442222,-.9386727602e-1
-.761881361e-1,.7426619858,-.2521937172e-1
-.862706565e-1,.7689302268,.4065573015e-1
-.976388563e-1,.7936357008,.1043263863
-.1101784452,.8169173308,.1662365718
-.1324887710+.1283197728*I,.3560218193+.1559749339*I,-1.047197551+.4567422268*I
-.1513895099+.8585640078e-1*I,.3715713595+.1043599606*I,-1.047197552+.3112830278*I
-.1350802381,.4299192857,-.9171009869
-.924065119e-1,.5203136686,-.6825729797
-.776649340e-1,.5767560353,-.5459130962
-.715206505e-1,.6227482396,-.4372435556
-.702565174e-1,.6628085359,-.3433883738
-.723324409e-1,.6988089350,-.2589527447
-.769314415e-1,.7317424896,-.1810934197
-.835587369e-1,.7622106155,-.1080890228
-.918888345e-1,.7906089565,-.3879881353e-1
-.1016954071,.8172126165,.2758400609e-1
-.1128149723,.8422203095,.9165955209e-1
-.1307953108+.1711899525*I,.3921802800+.2080843891*I,-1.047197551+.5950071186*I
-.1496960502+.1398872697*I,.4077298204+.1700354291*I,-1.047197552+.4949515063*I
-.1685967892+.1015601950*I,.4232793608+.1234481979*I,-1.047197552+.3659703096*I
-.1874975283+.3929471412e-1*I,.4388289015+.4776341405e-1*I,-1.047197551+.1442787384*I
-.1242840320,.5541897352,-.7398341563
-.1046922346,.6165276286,-.5867256805
-.9632931978e-1,.6652166184,-.4710198485
-.9368455938e-1,.7069550915,-.3730823891
-.9477336188e-1,.7441553536,-.2859383003
-.9860709798e-1,.7780190996,-.2061417317
-.1046084268,.8092481006,-.1316853931
-.1124063724,.8382932816,-.6127352193e-1
-.1217470747,.8654632136,.5992673365e-2
-.32044286e-1,.2880877069,-.1297756049e-1
-.42372183e-1,.3140576880,.5245604578e-1
-.53962308e-1,.3384934068,.1157743234
-.66706210e-1,.3615266917,.1774032884
-.80522033e-1,.3832570370,.2376896260
-.95347942e-1,.4037596055,.2969244772
-.111137784,.4230904946,.3553597694
-.127858212,.4412902428,.4132199674
-.145486763,.4583861498,.4707109785
-.164010669,.4743937375,.5280273112
-.183426192,.4893175488,.5853582167
-.203738443,.5031513723,.6428933797
-.224961634,.5158779318,.7008286514
-.160727506e-1,.3092423147,-.5266192296e-1
-.255933510e-1,.3361935802,.1425931567e-1
-.364563107e-1,.3615131812,.7876372135e-1
-.485330600e-1,.3853574014,.1413398281
-.617270900e-1,.4078435466,.2023774419
-.759654370e-1,.4290603063,.2621980026
-.911931540e-1,.4490744709,.3210748346
-.1073696460,.4679353817,.3792473223
-.1244662340,.4856778981,.4369313275
-.1424645640,.5023243334,.4943272696
-.1613556350,.5178856254,.5516267860
-.1811393520,.5323618902,.6090186232
-.2018245180,.5457424293,.6666942950
-.20373914e-2,.3296665818,-.9601229791e-1
-.106337175e-1,.3577413171,-.2726909262e-1
-.206748422e-1,.3840598735,.3868141871e-1
-.320056804e-1,.4088107613,.1024122392
-.445109339e-1,.4321341269,.1643704594
-.581037203e-1,.4541355769,.2249173735
-.727183544e-1,.4748949531,.2843544133
-.883056203e-1,.4944720787,.3429407671
-.1048296223,.5129105848,.4009059350
-.1222656980,.5302404492,.4584591397
-.1405990810,.5464796209,.5157967840
-.1598241380,.5616349480,.5731087539
-.1799440810,.5757025237,.6305841697
.98285908e-2,.3491517702,-.1435814459
.23052559e-2,.3785307468,-.7257647399e-1
-.67966061e-2,.4059909938,-.4844970445e-2
-.172858020e-1,.4317649123,.6030362831e-1
-.290222368e-1,.4560227899,.1233943200
-.419011696e-1,.4788919420,.1848417837
-.558434915e-1,.5004685254,.2449848212
-.707894815e-1,.5208251329,.3041090185
-.866946873e-1,.5400157969,.3624623812
-.1035271750,.5580793328,.4202666681
-.1212657242,.5750415357,.4777260387
-.1398986933,.5909165553,.5350340411
-.1594234293,.6057076166,.5923796771
.192182847e-1,.3674190291,-.1961292624
.129639271e-1,.3983404680,-.1222650775
.49515773e-2,.4271250368,-.5230958045e-1
-.45763456e-2,.4540673995,.1459771394e-1
-.154458636e-1,.4793790307,.7909102548e-1
-.275285994e-1,.5032159742,.1416582676
-.407281851e-1,.5256953660,.2026888277
-.549717621e-1,.5469057692,.2625038549
-.702044646e-1,.5669138728,.3213764646
-.863857657e-1,.5857689375,.3795458947
-.1034870444,.6035057536,.4372279104
-.1214899932,.6201465740,.4946228692
-.1403856607,.6357022790,.5519223771
.257148129e-1,.3840799805,-.2547358626
.209993700e-1,.4168719977,-.1771665462
.142760225e-1,.4472233705,-.1043810293
.58637544e-2,.4755218321,-.3526067495e-1
-.40151067e-2,.5020376237,.3098800591e-1
-.151997088e-1,.5269662642,.9495662229e-1
-.275707363e-1,.5504527832,.1571047330
-.410383773e-1,.5726063500,.2178022436
-.555347184e-1,.5935095138,.2773566368
-.710087795e-1,.6132242411,.3360313740
-.874232129e-1,.6317959299,.3940589377
-.1047521072,.6492560750,.4516505345
-.1229795719,.6656239930,.5090037408
.287260779e-1,.3985640063,-.3210109118
.259431040e-1,.4337049735,-.2384711499
.207860690e-1,.4659602271,-.1619897384
.136965444e-1,.4958665051,-.9002876806e-1
.49697814e-2,.5237826928,-.2155002193e-1
-.51866181e-2,.5499611313,.4419115275e-1
-.166215544e-1,.5745854859,.1077549420
-.292225191e-1,.5977925128,.1695798195
-.429046745e-1,.6196853335,.2300211151
-.576038952e-1,.6403418932,.2893760623
-.732722052e-1,.6598205082,.3479008857
-.898747355e-1,.6781635612,.4058230244
-.1073877103,.6953999542,.4633503403
.273544970e-1,.4099694571,-.3975237715
.271241317e-1,.4482131644,-.3079704777
.239426255e-1,.4828697079,-.2264819815
.184674605e-1,.5147382687,-.1507722916
.111122761e-1,.5443216338,-.7939949801e-1
.21561290e-2,.5719590003,-.1138007712e-1
-.82035580e-2,.5978903396,.5399702753e-1
-.198224926e-1,.6222910411,.1172701950
-.325929617e-1,.6452920325,.1788631737
-.464336566e-1,.6669921448,.2391210764
-.612831606e-1,.6874660328,.2983339401
-.770956588e-1,.7067693848,.3567529083
-.938380815e-1,.7249423968,.4146019030
.200942911e-1,.4167099032,-.4888319939
.235128368e-1,.4593889254,-.3885659927
.229627668e-1,.4972440254,-.2999155254
.195398068e-1,.5316070787,-.2190575902
.138706526e-1,.5632398428,-.1438133857
.63527158e-2,.5926253793,-.7279666382e-1
-.27444616e-2,.6200913204,-.5055951535e-2
-.132294905e-1,.6458703050,.6009995964e-1
-.249621407e-1,.6701327829,.1231964909
-.378375770e-1,.6930061840,.1846486088
-.517766208e-1,.7145867530,.2447953188
-.667194969e-1,.7349471450,.3039223460
-.826217089e-1,.7541414480,.3622777969
.39293081e-2,.4154394322,-.6046306568
.133488501e-1,.4654127716,-.4855215907
.166210445e-1,.5079139016,-.3856981042
.159698826e-1,.5456461230,-.2973317556
.124702142e-1,.5799159352,-.2166731219
.67392343e-2,.6114735492,-.1415764452
-.8306922e-3,.6407958907,-.7067277483e-1
-.99730016e-2,.6682069739,-.3020650092e-2
-.204981978e-1,.6939371342,.6206491051e-1
-.322673327e-1,.7181552642,.1251052547
-.451764811e-1,.7409876882,.1865125831
-.591471388e-1,.7625298292,.2466239705
-.741200526e-1,.7828537102,.3057237838
-.302033397e-1,.3955739850,-.7759886938
-.70227120e-2,.4622741649,-.6105064200
.27556996e-2,.5126837154,-.4902345622
.62366111e-2,.5554385445,-.3897796972
.57295065e-2,.5933458707,-.3010082738
.23390966e-2,.6277484884,-.2200656203
-.33038516e-2,.6594131059,-.1447587632
-.107997687e-1,.6888254077,-.7369405839e-1
-.198778436e-1,.7163145690,-.5915760497e-2
-.303458781e-1,.7421142090,.5926999051e-1
-.420630993e-1,.7663954420,.1223903543
-.549242844e-1,.7892861660,.1838614737
-.688499672e-1,.8108829750,.2440231732
-.958964497e-1+.6501717206e-1*I,.3411956167+.7902951272e-1*I,-1.047197551+.2373192621*I
-.499096503e-1,.4356170983,-.8057838518
-.234054008e-1,.5063571973,-.6287215324
-.124740295e-1,.5581681914,-.5046916823
-.83374923e-2,.6017199454,-.4022411299
-.83970413e-2,.6401712829,-.3122028381
-.114502506e-1,.6749837730,-.2303773250
-.168227219e-1,.7069771607,-.1544196416
-.240919806e-1,.7366649692,-.8285754433e-1
-.329738236e-1,.7643926532,-.1469014634e-1
-.432675808e-1,.7904041322,.5080431534e-1
-.548267832e-1,.8148774392,.1141711791
-.675421791e-1,.8379453722,.1758389041
-.9180314425e-1+.1239557204*I,.3763817257+.1506703516*I,-1.047197552+.4421609122*I
-.1107038840+.7954606020e-1*I,.3919312666+.9668963094e-1*I,-1.047197552+.2890427515*I
-.8242101865e-1,.4648333049,-.8724636250
-.4703327565e-1,.5463714477,-.6640195525
-.3367764575e-1,.6011291697,-.5319880103
-.2823584755e-1,.6462674918,-.4255118170
-.2742681185e-1,.6857746092,-.3329802538
-.2983534675e-1,.7213707128,-.2494412662
-.3469583845e-1,.7539864207,-.1722313892
-.4153913025e-1,.7841919987,-.9971769542e-1
-.5005419785e-1,.8123655057,-.3080855476e-1
-.6002362825e-1,.8387712087,.3527319801e-1
-.7128981105e-1,.8636006857,.9910870369e-1
.583858e-3,.2876964462,.4714882417e-1
-.10906746e-1,.3122531363,.1106240643
-.23558949e-1,.3353978817,.1723782669
-.37288992e-1,.3572324943,.2327636302
-.52033576e-1,.3778339145,.2920751808
-.67745382e-1,.3972596586,.3505675831
-.84390089e-1,.4155514456,.4084671955
-.101944393,.4327376021,.4659811699
-.120394756,.4488345822,.5233047112
-.139736711,.4638478173,.5806272840
-.159974634,.4777719874,.6381383265
-.181121967,.4905907535,.6960329544
-.203201908,.5022759185,.7545181610
.181574400e-1,.3097497297,.1042249817e-1
.73689809e-2,.3351598879,.7505347674e-1
-.46397924e-2,.3590867335,.1377306994
-.177707710e-1,.3816495195,.1988487788
-.319497890e-1,.4029383953,.2587325175
-.471209610e-1,.4230212895,.3176576126
-.632429340e-1,.4419484693,.3758651152
-.802863830e-1,.4597555787,.4335720242
-.982323800e-1,.4764656249,.4909794655
-.1170713980,.4920901889,.5482794217
-.1368028240,.5066300142,.6056606547
-.1574349340,.5200750426,.6633143577
-.1789853070,.5324039067,.7214400150
.339783912e-1,.3312550881,-.2951977732e-1
.239828244e-1,.3576290213,.3651403831e-1
.126930787e-1,.3824298582,.1003113101
.2255703e-3,.4057991029,.1623225872
-.133320027e-1,.4278433555,.2229115588
-.279133335e-1,.4486432129,.2823813383
-.434687122e-1,.4682590975,.3409923002
-.599618370e-1,.4867351354,.3989747738
-.773676955e-1,.5041017301,.4565385310
-.956712045e-1,.5203772141,.5138802954
-.1148664305,.5355687998,.5711900784
-.1349562945,.5496729387,.6286569332
-.1559527115,.5626751460,.6864746369
.478646088e-1,.3520548302,-.7308255508e-1
.387735143e-1,.3795281665,-.5329876981e-2
.282938982e-1,.4053137299,.5983553284e-1
.165661625e-1,.4295821816,.1229396508
.36952657e-2,.4524611016,.1843978180
-.102395221e-1,.4740468431,.2445492990
-.251783552e-1,.4944121495,.3036800035
-.410766800e-1,.5136111773,.3620381693
-.579024806e-1,.5316828420,.4198457121
-.756344611e-1,.5486530288,.4773068915
-.942609141e-1,.5645359691,.5346153129
-.1137791212,.5793349663,.5919599888
-.1341952175,.5930425636,.6495310176
.595825666e-1,.3719458931,-.1208076105
.515372800e-1,.4006904267,-.5092169291e-1
.419805394e-1,.4275977613,.1593082006e-1
.310852097e-1,.4528780169,.8038052005e-1
.189789041e-1,.4766863109,.1429129229
.57574403e-2,.4991391104,.2039157703
-.85067344e-2,.5203244758,.2637090565
-.237590781e-1,.5403087050,.3225650859
-.399593273e-1,.5591407383,.3807225252
-.570790831e-1,.5768550952,.4383967510
-.751002364e-1,.5934737876,.4957878810
-.940140194e-1,.6090074730,.5530874061
-.1138205618,.6234559938,.6104840749
.688262003e-1,.3906578999,-.1734369031
.620121288e-1,.4208989967,-.1008571420
.535221243e-1,.4491029672,-.3189664060e-1
.435747887e-1,.4755355272,.3422571957e-1
.323285177e-1,.5003892080,.9809360901e-1
.199009186e-1,.5238069639,.1601612780
.63805599e-2,.5458964509,.2207949669
-.81655905e-2,.5667390706,.2802995854
-.236872989e-1,.5863958824,.3389367775
-.401478318e-1,.6049115358,.3969377537
-.575218056e-1,.6223168867,.4545128767
-.757938029e-1,.6386306738,.5118592164
-.949575766e-1,.6538604908,.5691669212
.751819583e-1,.4078159104,-.2320196951
.698529765e-1,.4398621603,-.1559566661
.626200577e-1,.4695941414,-.8431423608e-1
.537696078e-1,.4973599836,-.1608408547e-1
.435036821e-1,.5234052917,.4946012523e-1
.319696787e-1,.5479092288,.1128667045
.192775030e-1,.5710053867,.1745661175
.55100796e-2,.5927945625,.2349081443
-.92699329e-2,.6133529187,.2941861074
-.250157264e-1,.6327373506,.3526534692
-.416934032e-1,.6509890622,.4105357581
-.592800279e-1,.6681359322,.4680395767
-.777623980e-1,.6841940072,.5253598236
.780666937e-1,.4228723703,-.2981087013
.745900541e-1,.4571701749,-.2173902868
.688776455e-1,.4887503618,-.1422493397
.613233412e-1,.5180916932,-.7131173280e-1
.521945978e-1,.5455192658,-.3633010989e-2
.416814782e-1,.5712641050,.6147367318e-1
.299233143e-1,.5954955709,.1245308890
.170243056e-1,.6183403198,.1859516652
.30631577e-2,.6398940202,.2460736568
-.119007195e-1,.6602288850,.3051816365
-.278231228e-1,.6793986450,.3635230406
-.446723292e-1,.6974418600,.4213192354
-.624272998e-1,.7143841020,.4787741259
.766059186e-1,.4349699893,-.3741565576
.755539391e-1,.4722150103,-.2869101196
.717484353e-1,.5061130732,-.2070410738
.657700230e-1,.5373699284,-.1325307609
.579914483e-1,.5664386551,-.6207736674e-1
.486676285e-1,.5936291092,.5221448972e-2
.379806074e-1,.6191625677,.7002623962e-1
.260642745e-1,.6432017763,.1328423140
.130189503e-1,.6658686766,.1940709478
-.10795458e-2,.6872554275,.2540415978
-.161740417e-1,.7074315235,.3130332535
-.322221395e-1,.7264484995,.3712892763
-.491936342e-1,.7443430705,.4290282406
.693584558e-1,.4426233869,-.4644405664
.717256689e-1,.4840244955,-.3673314620
.704410847e-1,.5209867814,-.2807299988
.664568595e-1,.5546676063,-.2013185787
.603331650e-1,.5857478686,-.1271494831
.524316519e-1,.6146671612,-.5695880437e-1
.430005938e-1,.6417272654,.1013353467e-1
.322177568e-1,.6671442580,.7477410359e-1
.202141102e-1,.6910773355,.1374589878
.70878855e-2,.7136458995,.1985831642
-.70866617e-2,.7349402085,.2584716917
-.222535750e-1,.7550282805,.3174004504
-.383714424e-1,.7739604505,.3756106175
.535327266e-1,.4427920331,-.5777744182
.613873031e-1,.4908631282,-.4636944345
.637233132e-1,.5322263094,-.3666782217
.624166341e-1,.5691617383,-.2801378322
.584153855e-1,.6028218712,-.2007698532
.522778258e-1,.6338852804,-.1266332018
.443645638e-1,.6627902914,-.5646752921e-1
.349232466e-1,.6898379251,.1060514503e-1
.241312340e-1,.7152437650,.7523006859e-1
.121192208e-1,.7391666730,.1379024523
-.10147617e-2,.7617258070,.1990166801
-.151966052e-1,.7830112480,.2588973922
-.303704697e-1,.8030908690,.3178201729
.214581184e-1,.4266331269,-.7400616187
.410711124e-1,.4889967863,-.5868805118
.494429336e-1,.5376966020,-.4711461260
.520930634e-1,.5794416019,-.3731926042
.510080356e-1,.6166464518,-.2860380284
.471771946e-1,.6505137176,-.2062340305
.411782164e-1,.6817455741,-.1317721599
.333822579e-1,.7107931708,-.6135603112e-1
.240432875e-1,.7379652088,.5913510708e-2
.133427388e-1,.7634822238,.7069502376e-1
.14140858e-2,.7875064578,.1334925037
-.116426479e-1,.8101594888,.1947063281
-.257518649e-1,.8315332088,.2546653301
-.544824769e-1+.5450693380e-1*I,.3612604173+.6625413381e-1*I,-1.047197551+.1995025945*I
.765962e-4,.4661016485,-.7731192325
.229554360e-1,.5324349990,-.6086830631
.326218222e-1,.5827083814,-.4887745479
.360378182e-1,.6253843046,-.3885162641
.354859900e-1,.6632372684,-.2998707415
.320616973e-1,.6975987013,-.2190162744
.263914699e-1,.7292301607,-.1437746347
.188726316e-1,.7586146010,-.7275987632e-1
.97746710e-2,.7860795900,-.5020703334e-2
-.7110535e-3,.8118577290,.6013398510e-1
-.124443363e-1,.8361194380,.1232295410
-.253203570e-1,.8589921290,.1846808811
.31612671e-1,.2860423483,.1044835730
.19070265e-1,.3093205539,.1663898282
.5442800e-2,.3312798521,.2268955680
-.9204646e-2,.3519993451,.2863005827
-.24823340e-1,.3715382696,.3448629026
-.41377785e-1,.3899397710,.4028112218
-.58843665e-1,.4072334078,.4603542276
-.77206523e-1,.4234367524,.5176880138
-.96461020e-1,.4385562947,.5750023494
-.116610661,.4525877721,.6324864247
-.137667979,.4655159536,.6903345395
-.159655169,.4773138590,.7487522224
-.182605279,.4879413174,.8079633542
.506345159e-1,.3088292070,.7031047495e-1
.387129459e-1,.3328620499,.1331186414
.25662772e-1,.3555230548,.1943409766
.11559719e-1,.3769042672,.2543066732
-.3539113e-2,.3970750915,.3132945296
-.19591388e-1,.4160869906,.3715477767
-.36566950e-1,.4339766181,.4292848968
-.54446137e-1,.4507678734,.4867079567
-.73218743e-1,.4664731613,.5440094075
-.92883500e-1,.4810940246,.6013780551
-.113448011,.4946212210,.6590047170
-.134929138,.5070342554,.7170880434
-.157353876,.5183003134,.7758410266
.680489759e-1,.3312104151,.3325649815e-1
.568211457e-1,.3560865118,.9715444136e-1
.444104688e-1,.3795248368,.1592461105
.309058836e-1,.4016334965,.2198988362
.163746398e-1,.4224942354,.2794182959
.8671938e-3,.4421683833,.3380666741
-.155795374e-1,.4607008131,.3960755593
-.329400125e-1,.4781225720,.4536555657
-.511986725e-1,.4944525710,.5110039131
-.703491365e-1,.5096985660,.5683108084
-.903938795e-1,.5238575498,.6257652218
-.1113443555,.5369155993,.6835605506
-.1332215835,.5488471657,.7419006743
.837101514e-1,.3530624054,-.6981828706e-2
.732632078e-1,.3788876823,.5824102385e-1
.615651310e-1,.4031921850,.1213910165
.487216252e-1,.4261043983,.1828857592
.348125122e-1,.4477213485,.2430661008
.198980644e-1,.4681162959,.3022190635
.40231774e-2,.4873438126,.3605936687
-.127798461e-1,.5054431634,.4184123765
-.304894592e-1,.5224405385,.4758797947
-.490937257e-1,.5383504463,.5331897161
-.685897070e-1,.5531764598,.5905312004
-.889833156e-1,.5669113913,.6480942485
-.1102896130,.5795369330,.7060755629
.974342634e-1,.3742308129,-.5080428483e-1
.878750869e-1,.4011351871,.1604360424e-1
.769775748e-1,.4264127903,.8048962294e-1
.648692762e-1,.4502186615,.1430190841
.516459623e-1,.4726692118,.2040195913
.373800450e-1,.4938524595,.2638110429
.221260398e-1,.5138346686,.3226656729
.59241871e-2,.5326647535,.3808221021
-.111971319e-1,.5503772101,.4384956724
-.292198257e-1,.5669940298,.4958864816
-.481351421e-1,.5825258516,.5531860121
-.679432254e-1,.5969724991,.6105830112
-.886531235e-1,.6103229751,.6682691472
.1089863267,.3945172803,-.9874489491e-1
.1004498897,.4226648117,-.2987948025e-1
.904616142e-1,.4490476072,.3616769694e-1
.791784426e-1,.4738564349,.9997562633e-1
.667169707e-1,.4972330178,.1619954150
.531650275e-1,.5192841136,.2225911340
.385890202e-1,.5400904413,.2820661676
.230387372e-1,.5597125202,.3406810838
.65505457e-2,.5781945548,.3986663427
-.108504853e-1,.5955670165,.4562318047
-.291492229e-1,.6118483004,.5135742473
-.483396864e-1,.6270456758,.5708837001
-.684247478e-1,.6411556518,.6283492085
.1180593705,.4136583505,-.1515327578
.1107220658,.4432634493,-.8012064626e-1
.1017813886,.4709196198,-.1207048082e-1
.914354352e-1,.4968676512,.5333101004e-1
.798289467e-1,.5212834818,.1166236501
.670699572e-1,.5442984267,.1782321613
.532400098e-1,.5660116034,.2385023354
.384007030e-1,.5864978862,.2977246869
.225979960e-1,.6058131391,.3561506964
.58650809e-2,.6239977075,.4140045195
-.117757225e-1,.6410787220,.4714918659
-.303117690e-1,.6570715530,.5288071321
-.497394437e-1,.6719805940,.5861395368
.1242402926,.4312898450,-.2101948389
.1183424916,.4626446847,-.1354942123
.1106319940,.4917961602,-.6489450870e-1
.1013674654,.5190586832,.2519188914e-2
.907333535e-1,.5446564546,.6741530995e-1
.788651844e-1,.5687542072,.1303043395
.658644469e-1,.5914753030,.1915910853
.518078317e-1,.6129129613,.2516074720
.367531879e-1,.6331374981,.3106342265
.207434600e-1,.6522011130,.3689159350
.38093137e-2,.6701410820,.4266720116
-.140291401e-1,.6869818490,.4841051088
-.327612809e-1,.7027363230,.5414079825
.1269498370,.4468823111,-.2762424407
.1228370402,.4804068543,-.1971584777
.1166085165,.5113596954,-.1232341559
.1086181004,.5401709249,-.5323224459e-1
.991093606e-1,.5671366054,.1371158564e-1
.882570189e-1,.5924691142,.7823397741e-1
.761899627e-1,.6163251158,.1408244504
.630049259e-1,.6388221932,.2018734947
.487750449e-1,.6600492437,.2617030257
.335553999e-1,.6800732180,.3205867034
.173866921e-1,.6989435910,.3787641491
.2976919e-3,.7166953320,.4364513851
