-.574120061e-1,.5007419801,.2420074237
-.723090378e-1,.5211580972,.3011763611
-.881671896e-1,.5404059560,.3595627810
-.1049539526,.5585250717,.4173895324
-.1226476019,.5755418509,.4748614745
-.1412360367,.5914710025,.5321725380
-.1607161617,.6063162898,.5895118167
.185696037e-1,.3673282938,-.1973477880
.123458365e-1,.3982869161,-.1234123868
.43594577e-2,.4271030526,-.5340192646e-1
-.51457524e-2,.4540730239,.1354863324e-1
-.159949338e-1,.4794093737,.7807638007e-1
-.280591055e-1,.5032688813,.1406711317
-.412414658e-1,.5257692120,.2017235804
-.554688280e-1,.5469993241,.2615557831
-.706860721e-1,.5670262173,.3204415005
-.868524643e-1,.5858994046,.3786204243
-.1039392065,.6036538901,.4363086239
-.1219278364,.6203121153,.4937066489
-.1408092575,.6358851373,.5510061983
.259600506e-1,.3841247526,-.2542690394
.212317673e-1,.4169011612,-.1767316256
.144978153e-1,.4472396445,-.1039702075
.60764669e-2,.4755270689,-.3486856716e-1
-.38103878e-2,.5020331436,.3136532849e-1
-.150021868e-1,.5269530360,.9532215613e-1
-.273798134e-1,.5504315340,.1574608532
-.408536019e-1,.5725776282,.2181508924
-.553557498e-1,.5934737336,.2776994557
-.708353643e-1,.6131817111,.3363697920
-.872551694e-1,.6317468705,.3943942326
-.1045893150,.6492006324,.4519838855
-.1228219667,.6655622452,.5093362685
.293208912e-1,.3987025388,-.3198563606
.265022424e-1,.4338001421,-.2374112265
.213168347e-1,.4660209087,-.1609990553
.142036805e-1,.4958984653,-.8909074550e-1
.54565561e-2,.5237899022,-.2065307223e-1
-.47178596e-2,.5499464417,.4505557354e-1
-.161690808e-1,.5745510021,.1085934034
-.287850306e-1,.5977398142,.1703975599
-.424811879e-1,.6196156150,.2308224530
-.571936696e-1,.6402560561,.2901646695
-.728746927e-1,.6597192178,.3486799729
-.894895481e-1,.6780472899,.4065954866
-.1070145986,.6952690044,.4641188633
.275270157e-1,.4100202679,-.3971790968
.272842363e-1,.4482488857,-.3076609799
.240933876e-1,.4828940719,-.2261969750
.186107336e-1,.5147535307,-.1505053255
.112492769e-1,.5443292713,-.7914631593e-1
.22877014e-2,.5719600395,-.1113767526e-1
-.80768045e-2,.5978855213,.5423087888e-1
-.197001077e-1,.6222809126,.1174972181
-.324746064e-1,.6452770060,.1790847503
-.463190744e-1,.6669725328,.2393383517
-.611721584e-1,.6874420690,.2985478898
-.769880948e-1,.7067412413,.3569643902
-.937338556e-1,.7249101960,.4148116951
.186224332e-1,.4161584657,-.4919057064
.221779347e-1,.4590039606,-.3912247327
.217221276e-1,.4969736395,-.3023087453
.183705385e-1,.5314234448,-.2212649326
.127588224e-1,.5631260262,-.1458833097
.52891356e-2,.5925702104,-.7476137054e-1
-.37661933e-2,.6200870203,-.6938249912e-2
-.142139997e-1,.6459112488,.5828308423e-1
-.259128595e-1,.6702147996,.1214318634
-.387570883e-1,.6931261348,.1829256404
-.526668784e-1,.7147422612,.2431052178
-.675819697e-1,.7351364264,.3022575910
-.834574752e-1,.7543631917,.3606317620
-.15290020e-2,.4127578228,-.6169053502
.86473484e-2,.4636510751,-.4953401926
.123571135e-1,.5066840801,-.3941908172
.120070888e-1,.5447823392,-.3049761904
.87354136e-2,.5793292812,-.2237237415
.31879148e-2,.6111099190,-.1481880769
-.42278888e-2,.6406196002,-.7694828983e-1
-.132365204e-1,.6681931709,-.9032921324e-2
-.236428212e-1,.6940678497,.5626162700e-1
-.353040231e-1,.7184171751,.1194688744
-.481134886e-1,.7413707654,.1810092751
-.619907061e-1,.7630264844,.2412256550
-.768748715e-1,.7834582404,.3004064361
-.475712484e-1,.3830511974,-.8218662697
-.191186632e-1,.4561595339,-.6379700542
-.75773149e-2,.5087119648,-.5119390583
-.31030653e-2,.5526742147,-.4084534512
-.29350181e-2,.5914021993,-.3177661700
-.58180564e-2,.6264215354,-.2354915708
-.110547265e-1,.6585799922,-.1592042964
-.182106055e-1,.6884056156,-.8739103653e-1
-.269945670e-1,.7162522772,-.1902751711e-1
-.372015898e-1,.7423691820,.4662238424e-1
-.486822962e-1,.7669379026,.1101133285
-.613253861e-1,.7900937252,.1718800647
-.750469097e-1,.8119386935,.2322753452
-.1059435575+.8659506614e-1*I,.3452664282+.1052578213*I,-1.047197551+.3138768584*I
-.913881095e-1,.4014825509,-.9236152236
-.475485611e-1,.4932940108,-.6848908764
-.326279655e-1,.5499539773,-.5476305807
-.263952222e-1,.5960537062,-.4386835948
-.250743947e-1,.6361829153,-.3446627256
-.271091326e-1,.6722333764,-.2601154924
-.316758810e-1,.7052061339,-.1821756131
-.382766094e-1,.7357065530,-.1091104878
-.465840032e-1,.7641324904,-.3977318738e-1
-.563706186e-1,.7907604084,.2664680454e-1
-.674722413e-1,.8157899111,.9075197641e-1
-.797672243e-1,.8393688640,.1530091584
-.1100429013+.1475132512*I,.3837719741+.1793049435*I,-1.047197551+.5197831568*I
-.1289436407+.1113338157*I,.3993215149+.1353282052*I,-1.047197551+.3994937063*I
-.1478443794+.5927777402e-1*I,.4148710550+.7205317376e-1*I,-1.047197551+.2167064748*I
-.9685997400e-1,.5153672144,-.7867748222
-.7251697180e-1,.5834802806,-.6172546475
-.6231868210e-1,.6344002005,-.4956180697
-.5859637800e-1,.6774484474,-.3944305745
-.5893782310e-1,.7155571349,-.3051916962
-.6220302530e-1,.7501119452,-.2239223238
-.6774532660e-1,.7818989008,-.1483741722
-.7515677220e-1,.8114138789,-.7712483893e-1
-.8416162900e-1,.8389920382,-.9201999360e-2
-.9456457590e-1,.8648707944,.5609847836e-1
-.8642506e-2,.2879467840,.3013883108e-1
-.19810904e-1,.3128951217,.9413402345e-1
-.32167074e-1,.3363997006,.1563033604
-.45620876e-1,.3585700891,.2170177169
-.60104146e-1,.3794891398,.2765852574
-.75565709e-1,.3992190590,.3352699266
-.91968055e-1,.4178054409,.3933045421
-.109285132,.4352799499,.4509005361
-.127500927,.4516620519,.5082556192
-.146608630,.4669600253,.5655602012
-.166610290,.4811713772,.6230031802
-.187516922,.4942827196,.6807776109
-.209349064,.5062690879,.7390867194
.112905733e-1,.3097694743,-.2228042839e-2
.7497570e-3,.3354806475,.6283023045e-1
-.110335717e-1,.3596815246,.1258487801
-.239558390e-1,.3824980026,.1872387368
-.379388030e-1,.4040251848,.2473364301
-.529234130e-1,.4243348487,.3064256995
-.688657550e-1,.4434803735,.3647533233
-.857343480e-1,.4615000232,.4225402143
-.1035083660,.4784191129,.4799899882
-.1221765310,.4942513509,.5372959041
-.1417365400,.5089995378,.5946469002
-.1621949450,.5226557082,.6522332641
-.1835674870,.5352007289,.7102524114
.292062795e-1,.3311414547,-.3831619098e-1
.193898309e-1,.3577331083,.2804825170e-1
.82613830e-2,.3827300053,.9210915195e-1
-.40581733e-2,.4062790890,.1543309708
-.174778819e-1,.4284909181,.2150869897
-.319289634e-1,.4494490951,.2746870640
-.473597544e-1,.4692164187,.3333963339
-.637323450e-1,.4878389682,.3914484491
-.810203425e-1,.5053488245,.4490554020
-.992074255e-1,.5217658267,.5064152400
-.1182864955,.5370986019,.5637185141
-.1382593205,.5513450035,.6211540846
-.1591366205,.5644920004,.6789147824
.449096898e-1,.3518973167,-.7854188222e-1
.359351625e-1,.3795123415,-.1055894594e-1
.255591553e-1,.4054238429,.5478921474e-1
.139254256e-1,.4298065612,.1180392724
.11413087e-2,.4527909631,.1796138164
-.127121660e-1,.4744755420,.2398571593
-.275737972e-1,.4949346894,.2990587692
-.433979418e-1,.5142238843,.3574693896
-.601516732e-1,.5323831501,.4153126680
-.778129019e-1,.5494393377,.4727939834
-.963691933e-1,.5654075603,.5301075485
-.1158171329,.5802919688,.5874425315
-.1361621537,.5940859599,.6449887405
.581384472e-1,.3718214825,-.1234879832
.501537807e-1,.4006397014,-.5347389361e-1
.406500686e-1,.4276114922,.1347951918e-1
.298022273e-1,.4529494716,.7800953913e-1
.177392787e-1,.4768104663,.1406061065
.45580538e-2,.4993121765,.2016599987
-.96682399e-2,.5205435876,.2614933355
-.248844658e-1,.5405717186,.3203799185
-.410498755e-1,.5594460997,.3785594688
-.581356605e-1,.5772017491,.4362480780
-.761233472e-1,.5938611207,.4936463068
-.950038300e-1,.6094352831,.5509458601
-.1147769084,.6239244801,.6083354881
.685350024e-1,.3906220397,-.1739815548
.617341493e-1,.4208792032,-.1013718757
.532554784e-1,.4490969508,-.3238811818e-1
.433181311e-1,.4755416516,.3375262309e-1
.320808597e-1,.5004062712,.9763517075e-1
.196615190e-1,.5238340654,.1597145459
.61488586e-2,.5459329103,.2203575206
-.83900155e-2,.5667843742,.2798693773
-.239047623e-1,.5864496475,.3385120233
-.403585585e-1,.6049734903,.3965168554
-.577259425e-1,.6223868507,.4540943565
-.759914290e-1,.6387085520,.5114416712
-.951487052e-1,.6539462673,.5687489762
.755992385e-1,.4078849786,-.2312298772
.702493283e-1,.4399057897,-.1552175676
.629989251e-1,.4696165181,-.8361380863e-1
.541333737e-1,.4973640048,-.1541386134e-1
.438540613e-1,.5233930406,.5010640445e-1
.323079387e-1,.5478822462,.1134938683
.196045960e-1,.5709648313,.1751780308
.58267269e-2,.5927413099,.2355079977
-.89631888e-2,.6132876284,.2947766200
-.247184855e-1,.6326605096,.3532370278
-.414053826e-1,.6509010138,.4111145159
-.590010489e-1,.6680368930,.4686155377
-.774923743e-1,.6840840833,.5259349065
.786018398e-1,.4229875543,-.2970775111
.750946427e-1,.4572482143,-.2164384132
.693575897e-1,.4887984456,-.1413562081
.617825527e-1,.5181145764,-.7046362951e-1
.526358053e-1,.5455202646,-.2820201235e-2
.421066581e-1,.5712456215,.6225845233e-1
.303339321e-1,.5954593875,.1252932814
.174214658e-1,.6182877783,.1866962119
.34476955e-2,.6398261359,.2468041330
-.115281766e-1,.6601464213,.3059012774
-.274621143e-1,.6793021609,.3642346982
-.443225356e-1,.6973317432,.4220255001
-.620885245e-1,.7142605927,.4794774206
.764089962e-1,.4349156952,-.3745463276
.753703982e-1,.4721769808,-.2872626751
.715751485e-1,.5060875085,-.2073672859
.656050557e-1,.5373544769,-.1328373623
.578335122e-1,.5664317497,-.6236888540e-1
.485158189e-1,.5936296503,.4941776365e-2
.378342673e-1,.6191697573,.6975598762e-1
.259229145e-1,.6432150196,.1325795865
.128822019e-1,.6658875252,.1938142127
-.12119609e-2,.6872795436,.2537895790
-.163023326e-1,.7074606523,.3127848504
-.323464588e-1,.7264824560,.3710435165
-.493140872e-1,.7443817268,.4287842378
.670686888e-1,.4418135843,-.4691642234
.696347300e-1,.4834563723,-.3714620843
.684905350e-1,.5205893032,-.2844717868
.646142861e-1,.5544013757,-.2047842231
.585784260e-1,.5855884019,-.1304091095
.507512764e-1,.6145980846,-.6005975063e-1
.413851113e-1,.6417370672,.7157331102e-2
.306602730e-1,.6672245585,.7189712589e-1
.187094928e-1,.6912218960,.1346612780
.56322626e-2,.7138500137,.1958485633
-.84962178e-2,.7352003182,.2557866924
-.236192575e-1,.7553417187,.3147534204
-.396948484e-1,.7743252770,.3729912426
.465426773e-1,.4395394208,-.5932254081
.552828871e-1,.4886870193,-.4763079628
.581539059e-1,.5307005127,-.3776924993
.572237127e-1,.5680935672,-.2901069080
.535114218e-1,.6021049322,-.2099980695
.476085797e-1,.6334536446,-.1353093645
.398938277e-1,.6625999492,-.6471882065e-1
.306255956e-1,.6898579709,.2687686734e-2
.199881808e-1,.7154517268,.6757809165e-1
.81170057e-2,.7395458257,.1304625559
-.48865138e-2,.7622635403,.1917456652
-.189457414e-1,.7836980228,.2517591877
-.340028704e-1,.8039195394,.3107837436
.16328060e-2,.4132660779,-.7907148030
.264117034e-1,.4819089822,-.6196769626
.367627687e-1,.5330146037,-.4975427128
.405721561e-1,.5761687012,-.3960902975
.402902225e-1,.6143497266,-.3066830649
.370698872e-1,.6489590724,-.2252963005
.315635894e-1,.6807897919,-.1496615756
.241823241e-1,.7103414544,-.7834606376e-1
.152036025e-1,.7379513810,-.1037144593e-1
.48238708e-2,.7638583558,.5497011651e-1
-.68132361e-2,.7882369684,.1182149029
-.196004686e-1,.8112175830,.1797852441
-.334568613e-1,.8328986160,.2400252674
-.667544055e-1+.8333060090e-1*I,.3662326655+.1012898066*I,-1.047197551+.3023983904*I
-.451125250e-1,.4310624711,-.8972586925
-.58248326e-2,.5173410704,-.6748848570
.83324537e-2,.5730732204,-.5401806023
.141844037e-1,.6187100887,-.4324259697
.152602033e-1,.6585414618,-.3391199329
.130470671e-1,.6943750767,-.2550552067
.83404136e-2,.7271777773,-.1774640455
.16243241e-2,.7575379726,-.1046620257
-.67817303e-2,.7858439868,-.3552885942e-1
-.166551214e-1,.8123664269,.3072994253e-1
-.278348005e-1,.8373010512,.9470662732e-1
-.402013140e-1,.8607930572,.1568611840
.20875731e-1,.2867569031,.8461459140e-1
.8692209e-2,.3104713377,.1470335673
-.4600975e-2,.3328369595,.2079462206
-.18932716e-1,.3539401983,.2676688186
-.34249521e-1,.3738460733,.3264710260
-.50511985e-1,.3926024830,.3845896644
-.67692438e-1,.4102430615,.4422388608
-.85773419e-1,.4267890323,.4996179586
-.104746763,.4422503201,.5569180884
-.124613191,.4566260501,.6143280167
-.145382338,.4699045071,.6720397997
-.167073255,.4820625376,.7302547173
-.189715401,.4930643331,.7891900068
.423891486e-1,.3091924952,.5509055555e-1
.307497937e-1,.3335683752,.1183318350
.17960487e-1,.3565464690,.1798993789
.4102152e-2,.3782251402,.2401371933
-.10764091e-1,.3986786811,.2993345307
-.26592666e-1,.4179624913,.3577419839
-.43350700e-1,.4361165279,.4155830959
-.61016150e-1,.4531675833,.4730631760
-.79576627e-1,.4691307187,.5303764019
-.99028756e-1,.4840100344,.5877119304
-.119378014,.4977988756,.6452595854
-.140638997,.5104794978,.7032155987
-.162836183,.5220221501,.7617889040
.620353409e-1,.3313274095,.2217368673e-1
.510195740e-1,.3564612720,.8642137754e-1
.388031816e-1,.3801357526,.1487924017
.254794455e-1,.4024642386,.2096669437
.111189050e-1,.4235324702,.2693596994
-.42253931e-2,.4434049270,.3281392294
-.205144059e-1,.4621290666,.3862415787
-.377207740e-1,.4797381456,.4438803491
-.558273090e-1,.4962530538,.5012545650
-.748261070e-1,.5116834029,.5585552100
-.947181370e-1,.5260280114,.6159710649
-.1155132990,.5392748484,.6736943659
-.1372309200,.5514004191,.7319267492
.796639382e-1,.3530319948,-.1443633170e-1
.693651172e-1,.3790373184,.5104909336e-1
.578013296e-1,.4035050515,.1144087410
.450817072e-1,.4265678482,.1760707103
.312886063e-1,.4483258122,.2363831321
.164842480e-1,.4688545752,.2956381694
.7150907e-3,.4882106087,.3540884691
-.159852575e-1,.5064347628,.4119589895
-.335941146e-1,.5235546083,.4694559652
-.520985076e-1,.5395859149,.5267740865
-.714945051e-1,.5545334600,.5841026554
-.917870226e-1,.5683912696,.6416312884
-.1129900675,.5811423166,.6995556377
.950735672e-1,.3741429570,-.5515934273e-1
.856049578e-1,.4011574162,.1186109409e-1
.747885324e-1,.4265335811,.7644445226e-1
.627542500e-1,.4504294210,.1390836329
.495996175e-1,.4729634543,.2001714330
.353983474e-1,.4942252818,.2600313893
.202059720e-1,.5142824036,.3189383050
.40635597e-2,.5331847390,.3771326020
-.129998079e-1,.5509676365,.4348308485
-.309654174e-1,.5676538437,.4922339051
-.498239389e-1,.5832547002,.5495336210
-.695749554e-1,.5977707138,.6069187514
-.902269380e-1,.6111915875,.6645806067
.1079943411,.3944476683,-.1005814756
.994982700e-1,.4226442650,-.3163341400e-1
.895455869e-1,.4490703246,.3447911056e-1
.782944973e-1,.4739181481,.9833915646e-1
.658624759e-1,.4973305286,.1604005622
.523379946e-1,.5194150046,.2210292838
.377879476e-1,.5402528880,.2805300310
.222625107e-1,.5599051675,.3391643057
.57983691e-2,.5784164347,.3971632214
-.115791343e-1,.5958174953,.4547370748
-.298546196e-1,.6121270426,.5120828967
-.490218741e-1,.6273526290,.5693908197
-.690835392e-1,.6414910439,.6268498432
.1180593699,.4136583509,-.1515327571
.1107220656,.4432634486,-.8012064815e-1
.1017813884,.4709196191,-.1207048285e-1
.914354347e-1,.4968676513,.5333101005e-1
.798289464e-1,.5212834815,.1166236490
.670699569e-1,.5442984263,.1782321598
.532400094e-1,.5660116032,.2385023346
.384007029e-1,.5864978862,.2977246862
.225979960e-1,.6058131391,.3561506955
.58650805e-2,.6239977074,.4140045190
-.117757226e-1,.6410787223,.4714918654
-.303117694e-1,.6570715525,.5288071315
-.497394441e-1,.6719805938,.5861395367
.1247563344,.4313669240,-.2092228765
.1188336480,.4626915152,-.1345810755
.1111021451,.4918174581,-.6402657959e-1
.1018193286,.5190577527,.3351630270e-2
.911689028e-1,.5446356936,.6821954092e-1
.792858868e-1,.5687153993,.1310860366
.662714081e-1,.5914197927,.1923548321
.522018880e-1,.6128417648,.2523570873
.371349669e-1,.6330513779,.3113729911
.211134196e-1,.6521006268,.3696467532
.41677705e-2,.6700266136,.4273975249
-.136819945e-1,.6868536313,.4848277952
-.324253706e-1,.7025944496,.5421302355
.1273392820,.4469596808,-.2754967984
.1232052187,.4804583741,-.1964668552
.1169593306,.5113901079,-.1225829634
.1089541724,.5401834183,-.5261225456e-1
.994325404e-1,.5671334278,.1430701507e-1
.885686556e-1,.5924519055,.7880985719e-1
.764910626e-1,.6162951001,.1413847145
.632962489e-1,.6387802931,.2024213332
.490571648e-1,.6599961569,.2622411132
.338287460e-1,.6800094671,.3211173499
.176515760e-1,.6988695536,.3792894057
.5543260e-3,.7166112667,.4369731304
-.174446549e-1,.7332569104,.4943689345
.1246513185,.4594380467,-.3533689081
.1229007125,.4958338746,-.2680483475
.1185557028,.5290761596,-.1895520027
.1121371872,.5597980622,-.1160682046
.1039852268,.5884129310,-.4640666416e-1
.943350462e-1,.6152066877,.2026907585e-1
.833559466e-1,.6403851203,.8457801240e-1
.711730894e-1,.6641003642,.1469979621
.578805246e-1,.6864667385,.2079113896
.435493675e-1,.7075706863,.2676345933
.282331190e-1,.7274772380,.3264372622
.119711922e-1,.7462343009,.3845562322
-.52087364e-2,.7638755170,.4422056408
.1147108856,.4669794967,-.4483250417
.1164161255,.5075759654,-.3531762109
.1146591781,.5439640853,-.2678729738
.1103092343,.5772003724,-.1893890618
.1038866722,.6079173561,-.1159146031
.957312652e-1,.6365280361,-.4626028610e-1
.860780634e-1,.6633181205,.2040976044e-1
.750962529e-1,.6884932578,.8471416089e-1
.629109175e-1,.7122054889,.1471304871
.496160491e-1,.7345690638,.2080410357
.352827211e-1,.7556703726,.2677619830
.199644006e-1,.7755744057,.3265629365
.37004730e-2,.7943290370,.3846806739
.934719797e-1,.4655522377,-.5724193279
.1010285011,.5132610420,-.4592889969
.1031813882,.5544016342,-.3628169796
.1017447011,.5911790365,-.2766352619
.976431188e-1,.6247172116,-.1975227951
.914237498e-1,.6556811790,-.1235771484
.834411036e-1,.6845018537,-.5355877903e-1
.739391572e-1,.7114757916,.1339800284e-1
.630928973e-1,.7368156927,.7793070295e-1
.510313919e-1,.7606784421,.1405294127
.378515057e-1,.7831817795,.2015850087
.236264720e-1,.8044147222,.2614196823
.84114476e-2,.8244443132,.3203072870
.483391528e-1,.4412928377,-.7668855822
.705728565e-1,.5068420154,-.6046824220
.799955330e-1,.5568191641,-.4855632162
.832695603e-1,.5993225218,-.3857341942
.826196667e-1,.6370562850,-.2973642844
.791209621e-1,.6713272681,-.2167031513
.733907590e-1,.7028858268,-.1416046225
.658214868e-1,.7322089636,-.7069953141e-1
.566797452e-1,.7596207367,-.3046294460e-2
.461550548e-1,.7853515114,.6204015010e-1
.343863787e-1,.8095701997,.1250812009
.214776553e-1,.8324031405,.1864890913
.75073956e-2,.8539457655,.2466009231
.48869410e-1,.2845759899,.1365080222
.35759828e-1,.3071647831,.1976535835
.21600932e-1,.3284781172,.2575589140
.6448928e-2,.3485843112,.3165005291
-.9654570e-2,.3675339465,.3747200498
-.26680020e-1,.3853629343,.4324348644
-.44608298e-1,.4020945180,.4898463456
-.63429698e-1,.4177404966,.5471465964
-.83143434e-1,.4323018256,.6045243880
-.103757602,.4457686637,.6621708097
-.125289590,.4581198751,.7202851217
-.147766986,.4693219261,.7790813111
-.171229100,.4793270351,.8387959923
.718400914e-1,.3074873757,.1095370210
.59207288e-1,.3306557023,.1713179250
.45495381e-1,.3525123581,.2317244143
.30767979e-1,.3731346635,.2910523508
.15072650e-1,.3925804363,.3495569853
-.1556077e-2,.4108916477,.4074650848
-.19094719e-1,.4280968406,.4649840677
-.37529578e-1,.4442126673,.5223092921
-.56856030e-1,.4592447462,.5796302731
-.77078298e-1,.4731879451,.6371364001
-.98209662e-1,.4860261217,.6950226403
-.120273142,.4977312956,.7534957226
-.143302732,.5082621458,.8127813642
.930618736e-1,.3302204911,.7941332978e-1
.809732445e-1,.3540502702,.1419718493
.677681886e-1,.3765230139,.2029954728
.535194625e-1,.3977271577,.2628050566
.382818503e-1,.4177292934,.3216735136
.220958130e-1,.4365786014,.3798399392
.4989917e-2,.4543098049,.4375200011
-.13017582e-1,.4709450954,.4949139955
-.31917776e-1,.4864952978,.5522135006
-.51710662e-1,.5009604189,.6096072641
-.72405132e-1,.5143296473,.6672868558
-.94019434e-1,.5265808053,.7254525596
-.116582119,.5376791864,.7843200186
.1124183768,.3526700995,.4592152678e-1
.1009508547,.3772548455,.1094334162
.883199016e-1,.4004254206,.1712168693
.746097228e-1,.4222841784,.2316253779
.598839587e-1,.4429084742,.2909548792
.441902005e-1,.4623561563,.3494606829
.275629968e-1,.4806692190,.4073695945
.100258468e-1,.4978762260,.4648890573
-.84075341e-2,.5139938484,.5222144447
-.277325091e-1,.5290277229,.5795352773
-.479532859e-1,.5429727345,.6370409389
-.690831285e-1,.5558127600,.6949263829
-.911450405e-1,.5675198402,.7533983142
.1297528084,.3747077223,.8755879126e-2
.1189967972,.4001573228,.7344227479e-1
.1070176083,.4241201285,.1361637663
.939140540e-1,.4467162490,.1973170869
.797608258e-1,.4680364725,.2572285151
.646142199e-1,.4881492275,.3161747956
.485159231e-1,.5071051860,.3743977149
.314955412e-1,.5249403336,.4321147690
.135722509e-1,.5416779801,.4895274002
-.52441905e-2,.5573299864,.5468277478
-.249529472e-1,.5718973671,.6042045835
-.455620659e-1,.5853703423,.6618489701
-.670888809e-1,.5977278416,.7199601040
.1448564342,.3961716795,-.3250923413e-1
.1349215497,.4226193729,.3363603965e-1
.1236864965,.4474866890,.9752220278e-1
.1112691916,.4709169575,.1596044654
.977584286e-1,.4930181088,.2202497306
.832213471e-1,.5138717514,.2797633717
.677083159e-1,.5335391107,.3384073645
.512561804e-1,.5520649714,.3964131477
.338904199e-1,.5694803053,.4539912364
.156265374e-1,.5858039566,.5113387931
-.35291377e-2,.6010436177,.5686460006
-.235791322e-1,.6151962181,.6261018368
-.445349541e-1,.6282477697,.6838997451
.1574503549,.4168514674,-.7846673541e-1
.1484742179,.4444645352,-.1048699271e-1
.1380967814,.4703742996,.5485863573e-1
.1264617556,.4947554422,.1181066702
.1136764432,.5177383907,.1796796008
.998218485e-1,.5394216084,.2399216694
.849591550e-1,.5598794645,.2991222949
.691339898e-1,.5791674190,.3575321854
.523792670e-1,.5973254797,.4153749641
.347170660e-1,.6143804852,.4728559944
.161598104e-1,.6303475361,.5301694812
-.32890944e-2,.6452307714,.5875045895
-.236350912e-1,.6590235761,.6450511312
.1671559410,.4364620180,-.1299554297
.1593184224,.4654590969,-.5962823958e-1
.1499432133,.4925870858,.7571418586e-2
.1392102952,.5180647565,.7229735813e-1
.1272521531,.5420531450,.1350504407
.1141681017,.5646729714,.1962289116
.1000332098,.5860154830,.2561601116
.849040655e-1,.6061494629,.3151215310
.688225931e-1,.6251258715,.3733554812
.518185989e-1,.6429809390,.4310798187
.339114367e-1,.6597381895,.4884962101
.151110281e-1,.6754096836,.5457969082
-.45816334e-2,.6899966285,.6031706960
.1734446154,.4545986374,-.1881973684
.1669924891,.4852796846,-.1147910829
.1588118942,.5138597484,-.4518951511e-1
.1491366049,.5406229852,.2143894753e-1
.1381349753,.5657740316,.8571022452e-1
.1259315145,.5894642314,.1481000910
.1126198000,.6118073294,.2089896070
.982705932e-1,.6328893372,.2686940852
.829371152e-1,.6527749461,.3274825204
.666585517e-1,.6715117873,.3855912625
.494623853e-1,.6891332658,.4432341180
.313659095e-1,.7056604023,.5006102371
.123771331e-1,.7211029321,.5579106610
.1755465133,.4706517462,-.2550562614
.1708398889,.5034544816,-.1774650288
.1641238234,.5338147064,-.1046629538
.1557177892,.5621207454,-.3552974525e-1
.1458444163,.5886432073,.3072908988e-1
.1346647533,.6135778515,.9470580189e-1
.1222982549,.6370698765,.1568603798
.1088348329,.6592285713,.2175630219
.943424771e-1,.6801365786,.2771214191
.788722265e-1,.6998559383,.3357991817
.624614789e-1,.7184321071,.3938288918
.451361877e-1,.7358966319,.4514218256
.269122814e-1,.7522688750,.5087756015
.1722673187,.4836277038,-.3335765476
.1698776604,.5192467522,-.2499868976
.1650320579,.5518805577,-.1727402186
.1582010931,.5821011207,-.1001986641
.1496966006,.6102874813,-.3126786247e-1
.1397364938,.6367045170,.3483101590e-1
.1284787139,.6615442090,.9868018024e-1
.1160405523,.6849491257,.1607328954
.1025103464,.7070266432,.2213547246
.879548887e-1,.7278579495,.2808501003
.724242732e-1,.7475039345,.3394803291
.559551201e-1,.7660091104,.3974763881
.385727143e-1,.7834042117,.4550484825
.1615632026,.4917104416,-.4292924878
.1625175947,.5313942427,-.3363394147
.1602156824,.5671199477,-.2525139101
.1554392125,.5998377852,-.1750960696
.1486654398,.6301278663,-.1024250303
.1402099808,.6583738276,-.3339359352e-1
.1302930848,.6848433873,.3278483200e-1
.1190742352,.7097303993,.9669743006e-1
.1066717975,.7331787387,.1588008029
.931748905e-1,.7552967323,.2194628153
.786509021e-1,.7761662899,.2789895153
.631503974e-1,.7958488744,.3376433530
.467103819e-1,.8143894684,.3956561032
.1392829426,.4908869277,-.5543098251
.1458636151,.5374095713,-.4442689690
.1474061034,.5778082122,-.3495986482
.1455318570,.6140537538,-.2646153247
.1410905215,.6471789535,-.1863612773
.1345929460,.6778047559,-.1130596017
.1263736046,.7063377230,-.4353901317e-1
.1166643208,.7330596386,.2302559104e-1
.1056321746,.7581735916,.8724599646e-1
.934007956e-1,.7818298567,.1495952254
.800631265e-1,.8041414055,.2104524459
.656894481e-1,.8251936685,.2701316464
.503326047e-1,.8450508765,.3289008839
.75452605e-1,.2815401192,.1861296828
.61488438e-1,.3030901502,.2462483063
.46521693e-1,.3234215293,.3053536931
.30596531e-1,.3425879368,.3636931855
.13744644e-1,.3606278921,.4214880882
-.4012962e-2,.3775669318,.4789422659
-.22664839e-1,.3934189684,.5362491110
-.42208522e-1,.4081869991,.5935975902
-.62650401e-1,.4218632569,.6511779143
-.84006043e-1,.4344288195,.7091873145
-.106301001,.4458526281,.7678364199
-.129572203,.4560897945,.8273568439
-.153870119,.4650789714,.8880108077
.99782419e-1,.3048136029,.1614953814
.86239083e-1,.3268751612,.2221014287
.71671213e-1,.3476913800,.2815845064
.56128719e-1,.3673229264,.3402054768
.39648067e-1,.3858141259,.3981950032
.22254413e-1,.4031955547,.4557630823
.3962967e-2,.4194857014,.5131065709
-.15220218e-1,.4346919238,.5704155305
-.35297941e-1,.4488108194,.6278789909
-.56281995e-1,.4618280545,.6856906257
-.78193766e-1,.4737176327,.7440548214
-.101065377,.4844405093,.8031936954
-.124941507,.4939423753,.8633557705
.1224572825,.3280120609,.1338826003
.1093937054,.3506567748,.1950875557
.952780581e-1,.3720226780,.2550395807
.801672357e-1,.3921789291,.3140169570
.641034139e-1,.4111767920,.3722625488
.471166087e-1,.4290527528,.4299945917
.29226360e-1,.4458305625,.4874149931
.10442761e-1,.4615224887,.5447161238
-.9233028e-2,.4761299428,.6020867822
-.29808721e-1,.4896435472,.6597178433
-.51301298e-1,.5020426632,.7178080948
-.73737889e-1,.5132943143,.7765707499
-.97157265e-1,.5233513726,.8362412782
.1433878770,.3510472484,.1031411111
.1308695436,.3743547138,.1650810043
.1172645500,.3963413261,.2256133969
.1026383670,.4170866649,.2850391401
.870400414e-1,.4366503467,.3436170101
.705053272e-1,.4550758319,.4015762251
.530587648e-1,.4723929500,.4591258185
.347150121e-1,.4886195173,.5164620818
.154796002e-1,.5037622569,.5737748603
-.46507894e-2,.5178171359,.6312532988
-.256884890e-1,.5307691635,.6890915234
-.476554770e-1,.5425916247,.7474947544
-.705845540e-1,.5532446507,.8066863952
.1624515199,.3738145645,.6904917856e-1
.1505531980,.3978756666,.1318924874
.1375245513,.4205628376,.1931428110
.1234417228,.4419686332,.2531305292
.1083621381,.4621628538,.3121352767
.923283990e-1,.4811972828,.3704008727
.753708821e-1,.4991088444,.4281462040
.575094457e-1,.5159216754,.4855735894
.387544750e-1,.5316484000,.5428756128
.191074139e-1,.5462907732,.6002410970
-.14391628e-2,.5598397691,.6578607628
-.229019266e-1,.5722751238,.7159330474
-.453076615e-1,.5835642807,.7746705888
.1794844163,.3961864415,.3129431389e-1
.1682939719,.4211079803,.9525335925e-1
.1559175870,.4445879875,.1573938266
.1424449553,.4667354880,.2180852717
.1279439004,.4876329219,.2776349318
.1124653313,.5073421699,.3363060955
.960465372e-1,.5259085581,.3943311236
.787133798e-1,.5433635216,.4519211420
.604817044e-1,.5597263209,.5092736793
.413581624e-1,.5750050408,.5665790675
.213405463e-1,.5891969976,.6240262305
.4176790e-3,.6022886058,.6818083482
-.214311564e-1,.6142546838,.7401288866
.1942695147,.4180023675,-.1055706758e-1
.1838934704,.4439138236,.5479102690e-1
.1722597068,.4682965003,.1180410311
.1594755586,.4912808644,.1796155333
.1456220547,.5129654077,.2398588426
.1307603962,.5334245214,.2990604264
.1149362247,.5527136841,.3574710284
.981824673e-1,.5708729185,.4153142937
.805212136e-1,.5879290749,.4727956008
.619648967e-1,.6038972671,.5301091647
.425169319e-1,.6187816452,.5874441511
.221718857e-1,.6325756050,.6449903682
.9152036e-3,.6452614555,.7029440047
.2065173686,.4390532109,-.5710817440e-1
.1970894315,.4661171083,.9990148660e-2
.1863093848,.4915374921,.7463547772e-1
.1743082827,.5154736628,.1373241656
.1611844166,.5380450938,.1984513703
.1470120883,.5593421002,.2583422765
.1318472881,.5794327404,.3172728549
.1157314577,.5983673863,.3754843452
.986939937e-1,.6161817703,.4331938739
.807538884e-1,.6328989781,.4906026506
.619207296e-1,.6485306636,.5479026967
.421951865e-1,.6630776405,.6052827769
.215690438e-1,.6765299226,.6629340500
.2158351089,.4590553232,-.1092123214
.2075299801,.4874840132,-.3987032041e-1
.1977453551,.5141143507,.2655338277e-1
.1866455218,.5391460289,.9066151331e-1
.1743521778,.5627269742,.1529210569
.1609568667,.5849684587,.2137070324
.1465288119,.6059546258,.2733305152
.1311200272,.6257486981,.3320575047
.1147687093,.6443971046,.3901222544
.975014956e-1,.6619322241,.4477371614
.793349275e-1,.6783741623,.5051005159
.602763090e-1,.6937317976,.5624029749
.403240760e-1,.7080032290,.6198333752
.2216736703,.4776050568,-.1681137678
.2147309506,.5076897795,-.9582412412e-1
.2061305082,.5357595110,-.2708930151e-1
.1960857486,.5620736502,.3885457955e-1
.1847516310,.5868205516,.1025801092
.1722433642,.6101402543,.1645341043
.1586477657,.6321382866,.2250776714
.1440304715,.6528944294,.2845121065
.1284406586,.6724684585,.3430965034
.1119141890,.6909039655,.4010602981
.944756982e-1,.7082308945,.4586126691
.761399270e-1,.7244671635,.5159499930
.569124861e-1,.7396195922,.5732621472
.2232316545,.4940923958,-.2357131497
.2180008938,.5262580346,-.1594114933
.2108499418,.5560896469,-.8758728359e-1
.2020702294,.5839414736,-.1921521942e-1
.1918669689,.6100629512,.4644145065e-1
.1803896654,.6346358078,.1099377977
.1677497077,.6577954386,.1717088475
.1540311130,.6796439661,.2321075394
.1392973758,.7002585704,.2914294263
.1235959714,.7196969586,.3499295435
.1069613530,.7380010087,.4078345076
.894169370e-1,.7551991834,.4653516367
.709763627e-1,.7713080628,.5226762341
.2192622506,.5075187123,-.3151222075
.2162981201,.5424394797,-.2330619043
.2109967956,.5745193470,-.1569317816
.2037869714,.6042793999,-.8523821608e-1
.1949564624,.6320694815,-.1696813020e-1
.1847082089,.6581362697,.4860773126e-1
.1731902006,.6826596492,.1120395776
.1605127597,.7057737180,.1737591529
.1467591179,.7275796453,.2341171236
.1319921692,.7481538807,.2934074405
.1162589095,.7675535479,.3518840069
.995933929e-1,.7858200410,.4097726560
.820186901e-1,.8029814020,.4672801927
.2076250196,.5160490167,-.4120130796
.2079248590,.5549371972,-.3209485661
.2051399568,.5900758200,-.2384139230
.1999813883,.6223292101,-.1619362546
.1928905871,.6522339373,-.8997812901e-1
.1841627249,.6801487875,-.2150160473e-1
.1740053523,.7063260437,.4423781285e-1
.1625695366,.7309493294,.1078001990
.1499677625,.7541553726,.1696239566
.1362848514,.7760472745,.2300643656
.1215849149,.7967029644,.2894186248
.1059159188,.8161807454,.3479429331
.893127228e-1,.8345229894,.4058647140
.100716877,.2777624945,.2337214928
.85956464e-1,.2983446739,.2930180035
.70229474e-1,.3177519623,.3514991868
.53570040e-1,.3360258486,.4093910311
.36001300e-1,.3531944576,.4669004388
.17536643e-1,.3692740629,.5242224785
-.1819607e-2,.3842699228,.5815465709
-.22071967e-1,.3981765442,.6390621967
-.43234029e-1,.4109774062,.6969646132
-.65329157e-1,.4226441120,.7554610589
-.88391739e-1,.4331348583,.8147780264
-.112469178,.4423920296,.8751703768
-.137624876,.4503385591,.9369334110
.126326847,.3013008987,.2112632776
.111939612,.3223366832,.2709285295
.96569824e-1,.3421781554,.3296871810
.80256188e-1,.3608723653,.3877745659
.63025779e-1,.3784522216,.4454038040
.44895528e-1,.3949383043,.5027736277
.25873104e-1,.4103399344,.5600748877
.5957301e-2,.4246556469,.6174963842
-.14862021e-1,.4378731168,.6752305229
-.36604451e-1,.4499685320,.7334792763
-.59300063e-1,.4609053374,.7924609806
-.82991100e-1,.4706321870,.8524186529
-.107734542,.4790798199,.9136307885
.1503563891,.3248540981,.1859493220
.1363952811,.3464078462,.2460713569
.1214314417,.3667427576,.3051793714
.1055090749,.3859125617,.3635208006
.886599039e-1,.4039558191,.4213170124
.70904968e-1,.4208981031,.4787719122
.52255739e-1,.4367533589,.5360789143
.32714710e-1,.4515246155,.5934269898
.12275517e-1,.4652041388,.6510063384
-.9077378e-2,.4777730404,.7090141606
-.31369497e-1,.4892002995,.7676610352
-.54637732e-1,.4994410729,.8271785008
-.78932508e-1,.5084340665,.8878286699
.1727386093,.3483457351,.1576817511
.1592610083,.3704871949,.2183671608
.1447552594,.3913789227,.2779121114
.1292722005,.4110827138,.3365797215
.1128490634,.4296438230,.3946022281
.955116602e-1,.4470936256,.4521906790
.772757912e-1,.4634513275,.5095425537
.581480657e-1,.4787249622,.5668481651
.381262348e-1,.4929117957,.6242964428
.17199078e-1,.5059981908,.6820806021
-.4654167e-2,.5179589081,.7404041703
-.27464910e-1,.5287557698,.7994879300
-.51276981e-1,.5383355011,.8595784654
.1933779784,.3716878731,.1263035217
.1804476908,.3944946025,.1876828754
.1664572022,.4160126382,.2477722101
.1514654399,.4363136091,.3068550475
.1355162192,.4554507718,.3651779365
.1186409365,.4734622901,.4229616377
.1008603452,.4903733899,.4804096656
.821856552e-1,.5061976970,.5377152265
.626191064e-1,.5209379342,.5950672493
.421540804e-1,.5345860567,.6526560511
.207747664e-1,.5471228462,.7106791223
-.15446587e-2,.5585169138,.7693475274
-.248414394e-1,.5687229888,.8288935331
.2121451549,.3947764219,.9158578701e-1
.1998350718,.4183370203,.1538212246
.1864241811,.4405595677,.2145880571
.1719814228,.4615278625,.2741965808
.1565585874,.4813048557,.3329122435
.1401936877,.4999367533,.3909689144
.1229132049,.5174557440,.4485787321
.1047335397,.5338817625,.5059398300
.856618648e-1,.5492235276,.5632427979
.656964866e-1,.5634789806,.6206764872
.448267611e-1,.5766351838,.6784336710
.230325515e-1,.5886676598,.7367170378
.2831618e-3,.5995390982,.7957460548
.2288687118,.4174844858,.5320791690e-1
.2172645250,.4419031136,.1165041599
.2045076574,.4649206377,.1781155445
.1906796972,.4866362295,.2383879897
.1758422750,.5071248033,.2976120975
.1600413778,.5264422559,.3560394106
.1433102192,.5446289599,.4138941289
.1256711399,.5617120699,.4713819883
.1071368013,.5777069767,.5286974028
.877108368e-1,.5926180965,.5860295946
.673880322e-1,.6064390913,.6435682874
.461540649e-1,.6191525520,.7015094403
.239847641e-1,.6307290987,.7600615157
.2433222642,.4396523170,.1072615841e-1
.2325278983,.4650552961,.7534706979e-1
.2205137388,.4889755943,.1380162488
.2073777659,.5115323098,.1991279270
.1931940504,.5328154752,.2590066353
.1780184020,.5528929287,.3179278842
.1618921152,.5718148646,.3761325922
.1448444623,.5896168639,.4338376648
.1268943264,.6063218792,.4912441732
.1080511931,.6219414408,.5485440717
.883156332e-1,.6364762420,.6059261194
.676793304e-1,.6499161742,.6635815342
.461246608e-1,.6622398158,.7217098542
.2552041880,.4610714660,-.3647653109e-1
.2453501371,.4876174144,.2981809620e-1
.2341878638,.5125731960,.9382334351e-1
.2218373074,.5360845986,.1560007113
.2083887339,.5582613423,.2167214423
.1939104009,.5791863945,.2762939585
.1784535585,.5989220521,.3349823888
.1620557783,.6175139833,.3930196761
.1447431633,.6349939164,.4506173387
.1265317748,.6513813749,.5079731393
.1074284677,.6666846902,.5652775071
.874312343e-1,.6809014226,.6227193363
.665291060e-1,.6940182398,.6804916460
.2641047060,.4814584979,-.8927380726e-1
.2553615536,.5093547630,-.2082812635e-1
.2451906523,.5355155744,.4488686096e-1
.2337426088,.5601239971,.1084297523
.2211295827,.5833163632,.1702379489
.2074361582,.6051954856,.2306660394
.1927262640,.6258390722,.2900107378
.1770477224,.6453052499,.3485278959
.1604352725,.6636362462,.4064447006
.1429125791,.6808608255,.4639688432
.1244935079,.6969958419,.5212958395
.1051828381,.7120471042,.5786152577
.849765041e-1,.7260096715,.6361164412
.2694497190,.5004085934,-.1489422342
.2620515839,.5299397505,-.7766372813e-1
.2530582552,.5575319220,-.9718061706e-2
.2426655493,.5834231265,.5560052970e-1
.2310166780,.6077874392,.1188269738
.2182185908,.6307548600,.1803826856
.2043520318,.6524235350,.2406111560
.1894779832,.6728675886,.2998012744
.1736419117,.6921422861,.3582033775
.1568765965,.7102874721,.4160408321
.1392040001,.7273298415,.4735188323
.1206364394,.7432843660,.5308314926
.1011772169,.7581550600,.5881679539
.2703980127,.5173068940,-.2174381618
.2646868443,.5488885886,-.1422942566
.2571335832,.5782311882,-.7135438232e-1
.2480057454,.6056598616,-.3673883512e-2
.2374934324,.6314056811,.6143421169e-1
.2257360011,.6556380373,.1244925544
.2128376688,.6784836090,.1859142297
.1988771559,.7000380809,.2460369296
.1839138818,.7203736791,.3051454553
.1679920585,.7395441442,.3634872617
.1511434163,.7575880443,.4212837285
.1333889993,.7745309590,.4787387689
.1147402855,.7903868410,.5360458018
.2656336830,.5311399876,-.2979796004
.2621532151,.5654331380,-.2172711287
.2564377191,.5970095725,-.1421375434
.2488808184,.6263477479,-.7120557873e-1
.2397498202,.6537725800,-.3531278835e-2
.2292346940,.6795149797,.6157189281e-1
.2174747069,.7037442300,.1246263046
.2045740134,.7265869309,.1860448447
.1906112856,.7481387107,.2461650730
.1756459071,.7684717512,.3052716955
.1597220601,.7876397560,.3636120988
.1428714505,.8056812650,.4214076168
.1251151007,.8226218310,.4788621343
.124736375,.2733396961,.2794727319
.109228048,.2930127728,.3381204175
.92780464e-1,.3115441664,.3961288129
.75419155e-1,.3289649117,.4537085163
.57159671e-1,.3452939095,.5110567385
.38008385e-1,.3605389056,.5683636831
.17962814e-1,.3746968826,.6258183203
-.2988505e-2,.3877539068,.6836140558
-.24866600e-1,.3996844190,.7419547805
-.47703182e-1,.4104498736,.8010618392
-.71542440e-1,.4199965580,.8611826333
-.96443766e-1,.4282522802,.9226018915
-.122485843,.4351213993,.9856572039
.151562734,.2970575408,.2590740051
.136385986,.3171336579,.3179943108
.120258639,.3360543047,.3761983316
.103209953,.3538550484,.4339029540
.85258800e-1,.3705588272,.4913092337
.66414655e-1,.3861771592,.5486091185
.46678079e-1,.4007107257,.6059913671
.26040745e-1,.4141494051,.6636472036
.4485019e-2,.4264717626,.7217761789
-.18016964e-1,.4376439276,.7805927506
-.41504841e-1,.4476177221,.8403342313
-.66032383e-1,.4563277847,.9012709913
-.91671053e-1,.4636872510,.9637202896
.1768671370,.3208706564,.2359003280
.1620707458,.3414091036,.2951628537
.1463092352,.3607744312,.3536187236
.1296163074,.3790076053,.4114930832
.112014728,.3961362967,.4689922864
.93517544e-1,.4121763662,.5263110903
.74128760e-1,.4271326791,.5836388193
.53843531e-1,.4409993480,.6411650635
.32647926e-1,.4537594386,.6990854024
.10518205e-1,.4653840954,.7576076407
-.12580456e-1,.4758309884,.8169591310
-.36695981e-1,.4850418650,.8773959741
-.61892430e-1,.4929388602,.9392152269
.2006019864,.3447109018,.2098977506
.1862375850,.3657744401,.2695865185
.1708896006,.3856424159,.3283630201
.1545970271,.4043622278,.3864631974
.1373871838,.4219670817,.4441005810
.1192772193,.4384778225,.5014741537
.1002750063,.4539040201,.5587748796
.803795400e-1,.4682444522,.6161915416
.59580887e-1,.4814870449,.6739164006
.37859681e-1,.4936082586,.7321511405
.15186101e-1,.5045718451,.7911136425
-.8481793e-2,.5143268247,.8510462555
-.33200612e-1,.5228043875,.9122265248
.2226941761,.3685020124,.1809612031
.2088177763,.3901587257,.2411785103
.1939343870,.4105914252,.3003600061
.1780893424,.4298552161,.3587557232
.1613153119,.4479898080,.4165888151
.1436341611,.4650217796,.4740643413
.1250581191,.4809659953,.5313763410
.1055904047,.4958263673,.5887139339
.852253875e-1,.5095960520,.6462670058
.639483046e-1,.5222571053,.7042319547
.417344981e-1,.5337795541,.7628179962
.185480784e-1,.5441197745,.8222546205
-.5660165e-2,.5532179505,.8828010014
.2430417735,.3921563135,.1489263884
.2297157118,.4144819718,.2097980351
.2153529785,.4355475380,.2694885260
.2000065866,.4554174500,.3282663358
.1837155510,.4741391310,.3863674507
.1665072095,.4917458104,.4440054332
.1483987262,.5082583518,.5013792837
.1293979890,.5236863429,.5586799739
.1095040071,.5380285793,.6160962871
.887068625e-1,.5512730059,.6738204728
.669872052e-1,.5633961017,.7320541935
.443152335e-1,.5743616431,.7910152987
.206490272e-1,.5841186745,.8509460877
.2615083741,.4155701078,.1135564815
.2488039169,.4386513381,.1752391226
.2350250049,.4604265488,.2355678863
.2202341009,.4809716662,.2948355780
.2044778560,.5003433942,.3532952917
.1877900380,.5185827790,.4111723017
.1701934688,.5357175613,.4686730460
.1517012494,.5517636645,.5259923274
.1323174307,.5667260135,.5833194853
.1120372194,.5805987813,.6408440921
.908467354e-1,.5933650968,.6987616782
.687222976e-1,.6049961749,.7572799597
.456291469e-1,.6154497656,.8166261600
.2779142389,.4386169590,.7452128894e-1
.2659152331,.4625556771,.1372131099
.2527933101,.4851294697,.1983428088
.2386228089,.5064286978,.2582356766
.2234597501,.5265214541,.3171677538
.2073455978,.5454581396,.3753803348
.1903097688,.5632745111,.4330905810
.1723712729,.5799936752,.4904997236
.1535397144,.5956273059,.5477997958
.1338157783,.6101762361,.6051795625
.1131912656,.6236304995,.6628301730
.916486778e-1,.6359688265,.7209510169
.691603030e-1,.6471575334,.7797562912
.2920225450,.4611375083,.3136458938e-1
.2808307603,.4860574181,.9532144035e-1
.2684531464,.5095359315,.1574601555
.2549793701,.5316820404,.2181502095
.2404772335,.5525781597,.2776987843
.2249976301,.5722861504,.3363691286
.2085778353,.5908513225,.3943935758
.1912436998,.6083050971,.4519832327
.1730110587,.6246667224,.5093356168
.1538865528,.6399442708,.5666410564
.1338679659,.6541350473,.6240884755
.1129441106,.6672254546,.6818710629
.910942594e-1,.6791902980,.7401922992
.3035177258,.4829233430,-.1654817048e-1
.2932610755,.5089799246,.4901264522e-1
.2817354677,.5334940662,.1124324799
.2690510260,.5565996258,.1741424720
.2552908367,.5783975948,.2344928634
.2405176824,.5989642866,.2937773064
.2247784685,.6183567167,.3522494964
.2081071755,.6366161882,.4101351202
.1905268099,.6537706656,.4676408863
.1720506391,.6698362766,.5249617524
.1526828745,.6848181393,.5822871029
.1324188825,.6987106219,.6398064575
.1112449508,.7114970569,.6977151864
.3119701928,.5036900906,-.7011709910e-1
.3028160945,.5310868438,-.2488067314e-2
.2922804013,.5568042441,.6257915085e-1
.2805017278,.5810107804,.1256048461
.2675837638,.6038324890,.1870004974
.2536048367,.6253645780,.2471026789
.2386240634,.6456789061,.3061954046
.2226854123,.6648289162,.3645255716
.2058204074,.6828529276,.4223141783
.1880499155,.6997763035,.4797648932
.1693852494,.7156127947,.5370710030
.1498287485,.7303652452,.5944214530
.1293738944,.7440257325,.6520065144
.3167757919,.5230295960,-.1306617416
.3089544194,.5520463009,-.6030002530e-1
.2995932917,.5791914062,.6926764888e-2
.2888729539,.6046843681,.7167428274e-1
.2769262739,.6286866896,.1344446042
.2638528423,.6513194239,.1956368004
.2497279318,.6726740687,.2555787934
.2346082920,.6928196013,.3145484806
.2185359756,.7118071393,.3727884615
.2015408988,.7296730459,.4305167878
.1836425115,.7464409625,.4879352507
.1648508240,.7621230569,.5452361650
.1451669168,.7767206429,.6026083210
.3170442059,.5403177333,-.2002143721
.3108926224,.5713640961,-.1261105150
.3029674738,.6002546592,-.5597012164e-1
.2935157742,.6272896734,.1108266886e-1
.2827144764,.6526842264,.7569177062e-1
.2706939938,.6765968394,.1383515163
.2575521585,.6991464287,.1994556851
.2433629279,.7204228906,.2593284957
.2281820254,.7404939575,.3182452352
.2120506730,.7594097364,.3764466668
.1949980842,.7772057357,.4341495892
.1770430886,.7939048437,.4915550071
.1581951225,.8095185317,.5488548427
.147571378,.2683561596,.3235308569
.131355739,.2871694862,.3816786165
.114220973,.3048655969,.4393465720
.96185027e-1,.3214663099,.4967346495
.77256522e-1,.3369820999,.5540342455
.57435181e-1,.3514126329,.6114341123
.36711822e-1,.3647467477,.6691260035
.15067891e-1,.3769618902,.7273105819
-.7525515e-2,.3880229293,.7862041022
-.31109253e-1,.3978802022,.8460465232
-.55738595e-1,.4064665254,.9071119898
-.81486922e-1,.4136927031,.9697231028
-.108451293,.4194407572,1.034271330
.175562843,.2921761429,.3051112591
.159641568,.3113472742,.3634534452
.142793458,.3293918220,.4212501691
.125039565,.3463353737,.4787053519
.106391371,.3621918870,.5360124152
.86851379e-1,.3769644044,.5933603340
.66413236e-1,.3906452034,.6509393017
.45061414e-1,.4032154096,.7089465078
.22770404e-1,.4146440168,.7675925114
-.496671e-3,.4248861994,.8271088218
-.24790221e-1,.4338806841,.8877575086
-.50177435e-1,.4415458001,.9498440853
-.76747174e-1,.4477735369,1.013735652
.2020770682,.3161655598,.2839617891
.1864961457,.3357503959,.3425530204
.1699782872,.3541963693,.4005216134
.152548224,.3715335423,.4580769016
.134220786,.3877799407,.5154153489
.115001667,.4029424850,.5727268668
.94887711e-1,.4170173389,.6302005618
.73866754e-1,.4299897177,.6880304163
.51917003e-1,.4418331301,.7464213889
.29005869e-1,.4525079658,.8055964771
.5088118e-2,.4619592397,.8658054854
-.19896947e-1,.4701131762,.9273365490
-.46029695e-1,.4768720828,.9905320872
.2270836954,.3402617218,.2600670019
.2118907387,.3603181372,.3189734208
.1957477665,.3792197913,.3771673562
.1786838525,.3970020254,.4348653676
.1607177053,.4136875786,.4922683045
.1418586487,.4292877850,.5495680156
.1221070952,.4438031458,.6069532541
.101454568,.4572233567,.6646153336
.79883269e-1,.4695267850,.7227539976
.57365151e-1,.4806793386,.7815840161
.33860365e-1,.4906325794,.8413431629
.9314875e-2,.4993208263,.9023024657
-.16343117e-1,.5066568075,.9647801165
.2505288080,.3643964314,.2333653592
.2357742797,.3849857636,.2926674544
.2200529344,.4043999128,.3511528023
.2033989758,.4226804548,.4090475292
.1858356033,.4398555879,.4665586290
.1673762608,.4559416536,.5238812211
.1480253267,.4709439742,.5812047429
.1277783352,.4848571214,.6387186587
.1066217503,.4976646416,.6966181730
.845322707e-1,.5093382126,.7551104329
.614755767e-1,.5198361169,.8144217924
.37404353e-1,.5291008424,.8748069101
.12255304e-1,.5370554524,.9365608027
.2723330249,.3884935207,.2037444269
.2580717257,.4096823818,.2635407433
.2428221244,.4296699442,.3223990822
.2266245210,.4485051938,.3805581915
.2095073454,.4662226872,.4382335008
.1914887347,.4828444700,.4956251606
.1725774818,.4983812310,.5529246789
.1527734828,.5128328433,.6103208031
.1320677305,.5261883587,.6680051755
.1104418593,.5384254533,.7261782257
.878671793e-1,.5495092541,.7850558352
.643030856e-1,.5593904055,.8448774151
.396946151e-1,.5680020985,.9059163275
.2923877650,.4124655342,.1710321544
.2786807472,.4343281334,.2314443519
.2639579772,.4549560689,.2907767163
.2482670902,.4744072408,.3492846584
.2316426702,.4927236871,.4071950553
.2141082481,.5099340099,.4647153975
.1956775675,.5260549150,.5220410851
.1763552924,.5410920709,.5793616467
.1561372416,.5550403961,.6368664596
.1350101789,.5678838012,.6947504506
.1129511331,.5795943646,.7532202779
.899261643e-1,.5901308314,.8125015495
.658884142e-1,.5994362450,.8728478478
.3105491127,.4362090631,.1349828165
