-.1039486715,.6729224402,-.2262821331e-1
-.1140833923,.6991272302,.4315217281e-1
-.1254987384,.7237753972,.1067472529
-.1380816810,.7470043302,.1685971060
-.1517469996,.7689176162,.2290581760
-.1726636767+.6926607138e-1*I,.2986103786+.8419412435e-1*I,-1.047197551+.2525159463*I
-.1309709561,.3878123312,-.8220458846
-.1024959610,.4609479052,-.6380708915
-.909478667e-1,.5135085392,-.5120177093
-.864699178e-1,.5574752842,-.4085207426
-.862993885e-1,.5962062862,-.3178263642
-.891805764e-1,.6312278732,-.2355468656
-.944157716e-1,.6633881212,-.1592560034
-.1015704216,.6932152392,-.8744001264e-1
-.1103533225,.7210631902,-.1907436010e-1
-.1205594070,.7471812352,.4657722976e-1
-.1320392635,.7717509882,.1100695203
-.1446815723,.7949077612,.1718373348
-.1617201270+.1167148410*I,.3310209564+.1418689357*I,-1.047197552+.4177721734*I
-.1806208667+.6838256367e-1*I,.3465704971+.8312020510e-1*I,-1.047197552+.2493605676*I
-.1379876542,.4369156336,-.8184894995
-.1099536709,.5095151518,-.6360641538
-.985394293e-1,.5619130848,-.5104508593
-.941350326e-1,.6057904268,-.4071797313
-.940138981e-1,.6444613888,-.3166264759
-.969319405e-1,.6794381778,-.2344444432
-.1021965056,.7115627258,-.1582250257
-.1093756521,.7413600688,-.8646343229e-1
-.1181796842,.7691823338,-.1814023863e-1
-.1284044824,.7952776318,.4747771034e-1
-.1399012672,.8198268088,.1109431502
-.1519224938+.1527374655*I,.3638958293+.1856550676*I,-1.047197551+.5366265444*I
-.1708232336+.1178352948*I,.3794453700+.1432308669*I,-1.047197552+.4215617971*I
-.1897239732+.7017945802e-1*I,.3949949110+.8530436171e-1*I,-1.047197552+.2557754481*I
-.1490322052,.4829801858,-.8258277250
-.1200819096,.5566935018,-.6401808866
-.1083921892,.6094262818,-.5136618365
-.1038367446,.6534872228,-.4099266858
-.1036142752,.6922813598,-.3190837546
-.1064567536,.7273499968,-.2367017726
-.1116611250,.7595477138,-.1603358342
-.1187900800,.7894060638,-.8846270104e-1
-.1275508244,.8172809458,-.2005246784e-1
-.1377372942,.8434228328,.4563444165e-1
-.1433832316+.1844533093*I,.3972805599+.2242062316*I,-1.047197551+.6358831989*I
-.1622839698+.1551111068*I,.4128300992+.1885402700*I,-1.047197552+.5442338884*I
-.1811847089+.1207454489*I,.4283796398+.1467682101*I,-1.047197552+.4313778361*I
-.2000854478+.7471979583e-1*I,.4439291804+.9082322202e-1*I,-1.047197551+.2719380655*I
-.1648586400,.5252717035,-.8464205284
-.1332014250,.6022753245,-.6512207511
-.1207555349,.6559272435,-.5222067974
-.1157920308,.7004841885,-.4172135112
-.1152978059,.7396086495,-.3255907250
-.1179385066,.7749225515,-.2426725861
-.1229825957,.8073150935,-.1659147418
-.1299781764,.8373355615,-.9374374224e-1
-.1386240681,.8653500495,-.2510130766e-1
-.577273645e-1,.2874267862,-.6032792878e-1
-.670879065e-1,.3145726040,.6899992490e-2
-.778077225e-1,.3400662003,.7164840572e-1
-.897539255e-1,.3640691008,.1344194436
-.1028269165,.3867023718,.1956122118
-.1169514125,.4080575198,.2555546526
-.1320706575,.4282035328,.3145246842
-.1481425935,.4471915328,.3727649163
-.1651373005,.4650578898,.4304934081
-.1830353235,.4818262488,.4879119579
-.2018266485,.4975087838,.5452128822
-.2215101925,.5121068118,.6025849702
-.2420937465,.5256108608,.6602191420
-.464094059e-1,.3075204936,-.1087388507
-.547250632e-1,.3359363864,-.3941869856e-1
-.645189416e-1,.3625554758,.2698775698e-1
-.756270939e-1,.3875770418,.9108214211e-1
-.879280575e-1,.4111487258,.1533307079
-.1013304595,.4333815908,.2141079639
-.1157652065,.4543596238,.2737246325
-.1311803865,.4741459238,.3324464622
-.1475378845,.4927868168,.3905075302
-.1648111365,.5103145968,.4481201163
-.1829836645,.5267492908,.5054824392
-.2020482245,.5420997048,.5627851244
-.2220064385,.5563638648,.6202170163
-.368667566e-1,.3265116447,-.1607195911
-.439865705e-1,.3563811059,-.8882611277e-1
-.527394354e-1,.3842655662,-.2040000644e-1
-.629189311e-1,.4104159312,.4529947698e-1
-.743747450e-1,.4350149082,.1088299930
-.869949216e-1,.4581985832,.1706283134
-.1006950287,.4800695832,.2310485869
-.1154112519,.5007054762,.2903872187
-.1310958618,.5201642782,.3488998424
-.1477141955,.5384881222,.4068134936
-.1652426530,.5557056952,.4643357644
-.1836674310,.5718337752,.5216621130
-.2029838040,.5868781052,.5789820898
-.293461569e-1,.3441414335,-.2169555236
-.350698264e-1,.3757079335,-.1418414244
-.426336028e-1,.4050377505,-.7092439824e-1
-.517705707e-1,.4324553255,-.3261805032e-2
-.622910117e-1,.4581912645,.6183206848e-1
-.740558268e-1,.4824146465,.1248790543
-.869609828e-1,.5052519235,.1862916759
-.1009278954,.5267986165,.2464072374
-.1158972509,.5471268235,.3055102645
-.1318249218,.5662901805,.3638480191
-.1486792500,.5843271695,.4216417484
-.1664392520,.6012632955,.4790952785
-.1850935083,.6171124405,.5364019841
-.241786707e-1,.3600543318,-.2784040028
-.282296624e-1,.3936540010,-.1991628138
-.344077615e-1,.4246681320,-.1251209060
-.423553931e-1,.4535313680,-.5502827600e-1
-.518267346e-1,.4805425070,.1198693954e-1
-.626456049e-1,.5059157000,.7656613989e-1
-.746821173e-1,.5298088290,.1392020000
-.878388184e-1,.5523403480,.2002871586
-.1020420346,.5735998100,.2601450392
-.1172362650,.5936546780,.3190503702
-.1333804652,.6125548400,.3772435161
-.1504455755,.6303356190,.4349410093
-.1684129012,.6470197400,.4923436867
-.218312908e-1,.3737363306,-.3464710426
-.238074106e-1,.4098580428,-.2617647511
-.283283037e-1,.4428865378,-.1837101743
-.348912873e-1,.4734328378,-.1105586296
-.431664436e-1,.5018979598,-.4115434682e-1
-.529247340e-1,.5285603068,.2531850816e-1
-.640009004e-1,.5536207538,.8946581128e-1
-.762725706e-1,.5772280438,.1517566423
-.896477148e-1,.5994940408,.2125674681
-.1040567415,.6205033368,.2722103785
-.1194473454,.6403195088,.3309520878
-.1357810935,.6589892708,.3890273510
-.1530311444,.6765452528,.4466489017
-.230107422e-1,.3843899204,-.4233720658
-.222834345e-1,.4237976952,-.3310769775
-.247520782e-1,.4593207352,-.2476991327
-.296600198e-1,.4918787652,-.1706063991
-.365426198e-1,.5220365652,-.9818141884e-1
-.450914230e-1,.5501690652,-.2934127943e-1
-.550906072e-1,.5765386022,.3668591198e-1
-.663836143e-1,.6013354742,.1004778986
-.788541183e-1,.6247010792,.1624849567
-.924144848e-1,.6467419362,.2230705829
-.1069984573,.6675385822,.2825377563
-.1225563644,.6871513932,.3411467583
-.1390519379,.7056244552,.3991278522
-.289060948e-1,.3906406700,-.5129863246
-.243825293e-1,.4346628662,-.4093491738
-.241814143e-1,.4734310432,-.3185673445
-.270398018e-1,.5084803442,-.2362274947
-.322568382e-1,.5406626662,-.1598924147
-.393963494e-1,.5705081862,-.8804276579e-1
-.481661950e-1,.5983720052,-.1965085347e-1
-.583607214e-1,.6245041002,.4602154302e-1
-.698301258e-1,.6490865592,.1095304412
-.824628113e-1,.6722550282,.1713115071
-.961746091e-1,.6941118182,.2317181255
-.1109019070,.7147342492,.2910461613
-.1265971359,.7341801442,.3495508698
-.419088270e-1,.3896638738,-.6234246709
-.313192110e-1,.4410594562,-.5005121792
-.273746452e-1,.4843778662,-.3986478826
-.275644622e-1,.5226708602,-.3089796249
-.307154679e-1,.5573644782,-.2274111301
-.361661954e-1,.5892627432,-.1516425232
-.435009176e-1,.6188709802,-.8022473368e-1
-.524393609e-1,.6465298662,-.1217012468e-1
-.627833319e-1,.6724803082,.5323489186e-1
-.743880232e-1,.6968983232,.1165303453
-.871453559e-1,.7199152822,.1781411002
-.1009737516,.7416303442,.2384130473
-.1158115871,.7621184162,.2976367711
-.690812126e-1,.3729710284,-.7795514046
-.455215801e-1,.4401318930,-.6127540337
-.356042481e-1,.4907103060,-.4920311407
-.320431361e-1,.5335626200,-.3913331500
-.324950879e-1,.5715369840,-.3024062957
-.358437616e-1,.6059903330,-.2213548792
-.414531320e-1,.6376957640,-.1459676406
-.489208512e-1,.6671423420,-.7484140094e-1
-.579744730e-1,.6946612260,-.7014914535e-2
-.684207619e-1,.7204873000,.5820909228e-1
-.801182448e-1,.7447925240,.1213600059
-.929612017e-1,.7677054050,.1828554839
-.1068698000,.7893229800,.2430364038
-.1292040827+.5368465386e-1*I,.3178463496+.6525463811e-1*I,-1.047197551+.1965313800*I
-.740757109e-1,.4233795739,-.7709396769
-.514240576e-1,.4894367750,-.6072903803
-.418428343e-1,.5396066400,-.4876578653
-.384763321e-1,.5822224040,-.3875493315
-.390623082e-1,.6200338600,-.2989998525
-.425124935e-1,.6543638190,-.2182127129
-.482035804e-1,.6859699220,-.1430208927
-.557399541e-1,.7153330500,-.7204429746e-1
-.648531321e-1,.7427795420,-.4335024826e-2
-.753523981e-1,.7685412210,.6079592011e-1
-.870979778e-1,.7927879830,.1238725129
-.999853589e-1,.8156468650,.1853087354
-.1186313174+.1082873967*I,.3504071602+.1316252295*I,-1.047197551+.3890886904*I
-.1375320571+.5366869468e-1*I,.3659567008+.6523523936e-1*I,-1.047197552+.1964736961*I
-.823927683e-1,.4715031905,-.7708978763
-.597454552e-1,.5375551155,-.6072636087
-.501658652e-1,.5877229975,-.4876363800
-.468003138e-1,.6303376045,-.3875307240
-.473869464e-1,.6681482635,-.2989830901
-.508376302e-1,.7024776175,-.2181972429
-.565291185e-1,.7340832335,-.1430063798
-.640658289e-1,.7634459495,-.7203052209e-1
-.731793001e-1,.7908920865,-.4321823707e-2
-.836788264e-1,.8166534485,.6080866419e-1
-.954246429e-1,.8408999225,.1238848929
-.1092395293+.1465394668*I,.3834464700+.1781212915*I,-1.047197551+.5166284328*I
-.1281402701+.1101058513*I,.3989960117+.1338355928*I,-1.047197552+.3953044924*I
-.1470410065+.5706452620e-1*I,.4145455499+.6936293214e-1*I,-1.047197552+.2087329532*I
-.9433864690e-1,.5171299168,-.7802184272
-.7070751970e-1,.5843776858,-.6131728114
-.6076420280e-1,.6349876798,-.4923655073
-.5718812490e-1,.6778581878,-.3916221122
-.5762979830e-1,.7158450448,-.3026662674
-.6097069870e-1,.7503078428,-.2215945787
-.6657381950e-1,.7820208718,-.1461923635
-.7403629110e-1,.8114738278,-.7505466207e-1
-.8308536390e-1,.8389982398,-.7219204708e-2
-.9352760830e-1,.8648292288,.5801192385e-1
-.21443393e-1,.2881116072,.6552132141e-2
-.32156417e-1,.3136134595,.7131220792e-1
-.44096433e-1,.3376238804,.1340925607
-.57163692e-1,.3602641192,.1952927482
-.71282800e-1,.3816258152,.2552410223
-.86396917e-1,.4017780622,.3142155240
-.102463912,.4207720682,.3724590182
-.119453808,.4386442722,.4301896710
-.137347097,.4554183862,.4876093455
-.156133718,.4711066392,.5449103946
-.175812539,.4857104072,.6022816106
-.196391307,.4992202752,.6599138863
-.217887032,.5116155642,.7180060472
-.85105754e-2,.3094849549,-.3871598853e-1
-.183188433e-1,.3360865539,.2766367545e-1
-.294399328e-1,.3610923930,.9173670394e-1
-.417527480e-1,.3846496720,.1539682144
-.551661820e-1,.4068691270,.2147319252
-.696113400e-1,.4278345040,.2743380108
-.850364700e-1,.4476087100,.3330518296
-.1014035880,.4662379120,.3911071861
-.1186862370,.4837542680,.4487161759
-.1368680410,.5001776870,.5060769093
-.1559418490,.5155168600,.5633799643
-.1759093740,.5297697030,.6208141945
-.1967812830,.5429232520,.6785723903
.28528207e-2,.3299814369,-.8696553708e-1
-.59403504e-2,.3578169032,-.1862052873e-1
-.161555287e-1,.3839238952,.4701470572e-1
-.276436114e-1,.4084836502,.1104939442
-.402934931e-1,.4316312172,.1722513395
-.540213656e-1,.4534684682,.2326392277
-.687638931e-1,.4740723872,.2919527358
-.844737275e-1,.4935005292,.3504465992
-.1011165213,.5117946412,.4083472244
-.1186689505,.5289830762,.4658617952
-.1371174575,.5450823132,.5231855351
-.1564575565,.5600978042,.5805079145
-.1766936045,.5740242532,.6380183657
.124622013e-1,.3494143561,-.1386810044
.48252122e-2,.3786551840,-.6792265400e-1
-.43753690e-2,.4059954360,-.3844775093e-3
-.149524688e-1,.4316625070,.6461056554e-1
-.267687796e-1,.4558232940,.1275786107
-.397215421e-1,.4786027040,.1889283162
-.537331197e-1,.5000951060,.2489942887
-.687449309e-1,.5203717070,.3080591524
-.847134385e-1,.5394854260,.3663688248
-.1016074802,.5574741430,.4241436359
-.1194065073,.5743628340,.4815868212
-.1380994976,.5901648960,.5388914410
-.1576843932,.6048828330,.5962463969
.200807236e-1,.3675387711,-.1945096565
.137857941e-1,.3984108938,-.1207397662
.57389764e-2,.4271535658,-.5085708146e-1
-.38191051e-2,.4540592708,.1599288655e-1
-.147156362e-1,.4793380678,.8044056253e-1
-.268230386e-1,.5031450278,.1429713464
-.400455203e-1,.5255965898,.2039729057
-.543106542e-1,.5467807898,.2637651821
-.695639122e-1,.5667639068,.3226204414
-.857650441e-1,.5855948678,.3807773250
-.1028856601,.6033081798,.4384511904
-.1209076611,.6199258418,.4958421436
-.1398222883,.6354585008,.5531416716
.253937362e-1,.3840212333,-.2553471355
.206951214e-1,.4168337058,-.1777359852
.139856690e-1,.4472019678,-.1049188717
.55852956e-2,.4755148888,-.3577398473e-1
-.42830945e-2,.5020434068,.3049407479e-1
-.154582724e-1,.5269835018,.9447813930e-1
-.278206592e-1,.5504805248,.1566385913
-.412802513e-1,.5726438758,.2173458953
-.557689901e-1,.5935562798,.2769079317
-.712357817e-1,.6132798438,.3355884424
-.876431843e-1,.6318600788,.3936201038
-.1049652047,.6493285798,.4512142539
-.1231858812,.6657047478,.5085685485
.279633327e-1,.3983855795,-.3224920737
.252262379e-1,.4335823125,-.2398304727
.201056609e-1,.4658818815,-.1632599710
.130464818e-1,.4958250465,-.9123126994e-1
.43458561e-2,.5237730035,-.2269971988e-1
-.57874257e-2,.5499795415,.4308326865e-1
-.172014726e-1,.5746292895,.1066804290
-.297832192e-1,.5978596755,.1685319414
-.434474213e-1,.6197743185,.2289943252
-.581296423e-1,.6404515425,.2883656488
-.737816577e-1,.6599499635,.3469027256
-.903683939e-1,.6783122145,.4048334054
-.1078658967,.6955674135,.4623658192
.271393773e-1,.4099060298,-.3979536306
.269245064e-1,.4481685708,-.3083564191
.237546583e-1,.4828392848,-.2268373545
.182888355e-1,.5147192018,-.1511051467
.109414748e-1,.5443120768,-.7971515462e-1
.19920972e-2,.5719576728,-.1168228273e-1
-.83615794e-2,.5978963168,.5370549038e-1
-.199750670e-1,.6223036408,.1169871790
-.327405117e-1,.6453107388,.1785869511
-.465765025e-1,.6670165698,.2388502233
-.614215433e-1,.6874958828,.2980672374
-.772297553e-1,.7068044438,.3564892844
-.939680163e-1,.7249825148,.4143403907
.218597254e-1,.4173659617,-.4851518170
.251156457e-1,.4598473118,-.3853774746
.244532191e-1,.4975658398,-.2970427473
.209449928e-1,.5318252488,-.2164063183
.152071096e-1,.5633744718,-.1413260899
.76313740e-2,.5926897518,-.7043503035e-1
-.15159806e-2,.6200947038,-.2792787877e-2
-.120456686e-1,.6458194048,.6228492323e-1
-.238188846e-1,.6700325728,.1253189953
-.367318052e-1,.6928604128,.1867213258
-.507060011e-1,.7143982528,.2468287735
-.656822775e-1,.7347180468,.3059255522
-.816166045e-1,.7538733128,.3642587042
.100955460e-1,.4183857108,-.5908879331
.186992638e-1,.4673674015,-.4744092765
.214887146e-1,.5092817465,-.3760385202
.205014444e-1,.5466054235,-.2886120016
.167454984e-1,.5805637275,-.2086155556
.108072822e-1,.6118694395,-.1340104360
.30626651e-2,.6409794435,-.6348413306e-1
-.62315713e-2,.6682058565,.3871939920e-2
-.168921867e-1,.6937714105,.6872225131e-1
-.287844787e-1,.7178398425,.1315746907
-.418075437e-1,.7405337995,.1928322882
-.558851278e-1,.7619459685,.2528257287
-.709597230e-1,.7821462545,.3118348688
-.134415914e-1,.4066381365,-.7335934709
.55750721e-2,.4682769448,-.5824534002
.136937626e-1,.5166690758,-.4675296443
.161907487e-1,.5582279288,-.3700336820
.149978732e-1,.5953016878,-.2831783688
.110842207e-1,.6290682958,-.2035865772
.50179543e-2,.6602183628,-.1292828783
-.28349244e-2,.6891967708,-.5898850274e-1
-.122235334e-1,.7163084728,.8185366148e-2
-.229684246e-1,.7417715898,.7289079165e-1
-.349374787e-1,.7657467148,.1356274867
-.480316399e-1,.7883542518,.1967929089
-.621760369e-1,.8096852098,.2567138515
-.858645853e-1+.3206037468e-1*I,.3371309810+.3896994761e-1*I,-1.047197551+.1178521815*I
-.197380649e-1,.4560326455,-.7285530639
-.11770385e-2,.5171176198,-.5789692728
.67446536e-2,.5652702948,-.4646750718
.91216852e-2,.6066833388,-.3675367261
.78440495e-2,.6436540728,-.2809160445
.38651766e-2,.6773414028,-.2014909633
-.22541601e-2,.7084269618,-.1273116664
-.101519804e-1,.7373507418,-.5711312634e-1
-.195798143e-1,.7644147658,.9985396431e-2
-.303597686e-1,.7898352618,.7463088353e-1
-.423607862e-1,.8137715358,.1373196974
-.554845745e-1,.8363430608,.1984470023
-.756735528e-1+.9947123416e-1*I,.3698464587+.1209090293*I,-1.047197551+.3587526979*I
-.945742925e-1+.3386280262e-1*I,.3853959994+.4116083033e-1*I,-1.047197552+.1244447056*I
-.291093331e-1,.5034935258,-.7311186811
-.103173622e-1,.5648592158,-.5807464273
-.22954281e-2,.6131337388,-.4661320218
.1427258e-3,.6546210778,-.3688115444
-.10916892e-2,.6916443448,-.2820712845
-.50372899e-2,.7253721178,-.2025612046
-.111295441e-1,.7564905968,-.1283184616
-.190044256e-1,.7854422608,-.5807103494e-1
-.284122344e-1,.8125306248,.9065923676e-2
-.391742861e-1,.8379728828,.7374198907e-1
-.511589809e-1,.8619289958,.1364552296
.13144436e-1,.2871780810,.7032879014e-1
.1222528e-2,.3112105139,.1331364481
-.11827958e-1,.3338711392,.1943583779
-.25931305e-1,.3552519945,.2543237561
-.41030417e-1,.3754224795,.3133113678
-.57082961e-1,.3944340515,.3715644361
-.74058785e-1,.4123233605,.4293014386
-.91938230e-1,.4291143025,.4867244359
-.110711092,.4448192785,.5440258786
-.130376106,.4594398295,.6013945736
-.150940878,.4729667095,.6590213371
-.172422272,.4853794195,.7171048254
-.194847286,.4966451415,.7758580336
.275102860e-1,.3096247474,.2765592310e-1
.163893441e-1,.3346307682,.9172919933e-1
.4076665e-2,.3581882102,.1539609021
-.9336642e-2,.3804078202,.2147247698
-.23781681e-1,.4013733432,.2743309769
-.39206697e-1,.4211476872,.3330448878
-.55573704e-1,.4397770232,.3911003086
-.72856246e-1,.4572935112,.4487093403
-.91037944e-1,.4737170582,.5060700914
-.110111645,.4890563602,.5633731420
-.130079064,.5033093332,.6208073457
-.150950864,.5164630142,.6785654908
-.172747206,.5284928982,.7368502960
.404632217e-1,.3313622581,-.1756984497e-1
.302270059e-1,.3574436785,.4802760597e-1
.187198906e-1,.3819802985,.1114766846
.60524826e-2,.4051065625,.1732100121
-.76917770e-2,.4269238945,.2335788593
-.224498331e-1,.4475089385,.2928776053
-.381745627e-1,.4669189745,.3513604569
-.548318040e-1,.4851955265,.4092534551
-.723983940e-1,.5023667485,.4667635390
-.908609230e-1,.5184489415,.5240858000
-.1102150430,.5334473885,.5814096630
-.1304652530,.5473566235,.6389246029
-.1516251220,.5601601525,.6968258563
.518588632e-1,.3522496621,-.6570644753e-1
.426114592e-1,.3795329998,.1740525629e-2
.319926198e-1,.4051493338,.6666309116e-1
.201383463e-1,.4292639788,.1295732492
.71504676e-2,.4520007038,.1908768262
-.68940734e-2,.4734530378,.2509064642
-.219372328e-1,.4936915358,.3099433999
-.379359058e-1,.5127685888,.3682325711
-.548592948e-1,.5307216328,.4259936361
-.726871710e-1,.5475752568,.4834294038
-.914088071e-1,.5633425008,.5407327107
-.1110224283,.5780255198,.5980924174
-.1315351252,.5916156978,.6556990727
.615178486e-1,.3721082962,-.1172169775
.533916851e-1,.4007545202,-.4750131584e-1
.437641153e-1,.4275757622,.1921708180e-1
.328052969e-1,.4527788472,.8355999155e-1
.206409821e-1,.4765166292,.1460070807
.73656458e-2,.4989039452,.2069420836
-.69492757e-2,.5200276272,.2666821887
-.222500298e-1,.5399530132,.3254977136
-.384969978e-1,.5587282592,.3836259345
-.556623289e-1,.5763872182,.4412812861
-.737284009e-1,.5929513122,.4986633037
-.926868984e-1,.6084306452,.5559632036
-.1125383946,.6228245242,.6133697471
.692115948e-1,.3907051835,-.1727161519
.623800472e-1,.4209250375,-.1001759168
.538750543e-1,.4491107895,-.3124614095e-1
.439145062e-1,.4755272895,.3485192837e-1
.326563291e-1,.5003664975,.9870044481e-1
.202178029e-1,.5237709715,.1607526439
.66872560e-2,.5458480755,.2213740649
-.78685234e-2,.5666789915,.2808691225
-.233994462e-1,.5863246015,.3394991100
-.398688974e-1,.6048294155,.3974950002
-.572515945e-1,.6222241635,.4550669902
-.755322120e-1,.6385274725,.5124120549
-.947045890e-1,.6537468325,.5697203049
.746390780e-1,.4077256868,-.2330474696
.693373697e-1,.4398050888,-.1569182765
.621272261e-1,.4695647508,-.8522542360e-1
.532964404e-1,.4973544978,-.1695588772e-1
.430479419e-1,.5234209888,.4861953449e-1
.315297121e-1,.5479440988,.1120510300
.188520668e-1,.5710579198,.1737703271
.50982340e-2,.5928636148,.2341280773
-.96688953e-2,.6134376298,.2934182215
-.254023290e-1,.6328370868,.3518946613
-.420680138e-1,.6511033748,.4097832223
-.596428815e-1,.6682645348,.4672907065
-.781136072e-1,.6843367648,.5246121237
.773862832e-1,.4227253085,-.2994202796
.739485927e-1,.4570704555,-.2186006568
.682675733e-1,.4886887965,-.1433847979
.607396633e-1,.5180622115,-.7238978734e-1
.516338306e-1,.5455176335,-.4666083419e-2
.411411019e-1,.5712872565,.6047631870e-1
.294014584e-1,.5955412345,.1235620632
.165195617e-1,.6184067845,.1850055815
.25744609e-2,.6399799895,.2451455072
-.123741698e-1,.6603333875,.3042673062
-.282819137e-1,.6795209665,.3626189006
-.451168689e-1,.6975815035,.4204219888
-.628578416e-1,.7145407605,.4778806944
.768486867e-1,.4350368372,-.3736761304
.757802280e-1,.4722618272,-.2864755092
.719620924e-1,.5061445362,-.2066388996
.659734283e-1,.5373889292,-.1321527412
.581861885e-1,.5664471242,-.6171792550e-1
.488548178e-1,.5936284002,.5566296003e-2
.381610546e-1,.6191536652,.7035948519e-1
.262385820e-1,.6431854102,.1331662881
.131875716e-1,.6658453992,.1943875389
-.9162666e-3,.6872256562,.2543523814
-.160158474e-1,.7073955722,.3133395835
-.320688424e-1,.7264065952,.3715923517
-.490451052e-1,.7442953702,.4293291549
.720631309e-1,.4435677122,-.4588753342
.741989204e-1,.4846875222,-.3624540416
.727500647e-1,.5214501332,-.2763058361
.686390771e-1,.5549768762,-.1972172737
.624120304e-1,.5859315122,-.1232895122
.544228684e-1,.6147442662,-.5328494539e-1
.449152249e-1,.6417112792,.1366097441e-1
.340638640e-1,.6670449812,.7818503023e-1
.219977041e-1,.6909020712,.1407768315
.88134985e-2,.7134001592,.2018269331
-.54156001e-2,.7346281602,.2616572935
-.206344996e-1,.7546530412,.3205416045
-.368024884e-1,.7735242882,.3787195093
.612662334e-1,.4462654775,-.5608593253
.681942483e-1,.4932103205,-.4497223638
.699559091e-1,.5338753685,-.3544073290
.682395179e-1,.5703127875,-.2689932448
.639211193e-1,.6035874205,-.1904298076
.575244203e-1,.6343358395,-.1168956338
.493910359e-1,.6629732895,-.4719512526e-1
.397571394e-1,.6897868385,.1951132499e-1
.287926465e-1,.7149830255,.8384472217e-1
.166231438e-1,.7387145025,.1462842132
.33429876e-2,.7610959605,.2072131741
-.109764753e-1,.7822141225,.2669485452
-.262815632e-1,.8021342395,.3257604688
.402661294e-1,.4381414766,-.6940880244
.559104798e-1,.4956811800,-.5543946069
.624956092e-1,.5422092400,-.4443397130
.640409229e-1,.5826113160,-.3496610962
.621687176e-1,.6188593360,-.2646722189
.577289736e-1,.6519864730,-.1864141707
.512327051e-1,.6826138650,-.1131094867
.430144794e-1,.7111481870,-.4358657306e-1
.333061742e-1,.7378712920,.2297986719e-1
.222749067e-1,.7629863130,.8720173565e-1
.100443323e-1,.7866435550,.1495521321
-.32925895e-2,.8089560130,.2104102813
-.176655629e-1,.8300091330,.2700902082
-.149887350e-1,.3900867239,-.9451085957
.328960861e-1,.4868152808,-.6917814786
.483568832e-1,.5441318708,-.5527059838
.548534368e-1,.5905522688,-.4429299677
.563425277e-1,.6308860048,-.3484163348
.544296979e-1,.6670846448,-.2635380301
.499582506e-1,.7001732448,-.1853595445
.434359302e-1,.7307689708,-.1121147240
.351954808e-1,.7592762788,-.4263816962e-1
.254676685e-1,.7859756738,.2389170539e-1
.144188833e-1,.8110694028,.8808444001e-1
.21722781e-2,.8347071588,.1504115629
-.111795515e-1,.8570014958,.2112512214
.46209143e-1,.2848277331,.1315628392
.33186286e-1,.3075219428,.1928207079
.19108897e-1,.3289343499,.2528143631
.4034488e-2,.3491348615,.3118236663
-.11994267e-1,.3681753485,.3700925958
-.28946933e-1,.3860928065,.4278401472
-.46803598e-1,.4029114375,.4852687083
-.65553829e-1,.4186439235,.5425708984
-.85196134e-1,.4332920775,.5999355445
-.105737892,.4468469305,.6575533434
-.127195723,.4592882815,.7156226750
-.149596352,.4705836435,.7743560802
-.172978082,.4806864615,.8339880343
.618685512e-1,.3081916599,.9107408583e-1
.49567734e-1,.3317635206,.1533228594
.36165467e-1,.3539965512,.2141002835
.21730849e-1,.3749747392,.2737170825
.6315792e-2,.3947611882,.3324390106
-.10041588e-1,.4134022252,.3905001489
-.27314725e-1,.4309301452,.4481127792
-.45487139e-1,.4473649792,.5054751218
-.64551584e-1,.4627155302,.5627778026
-.84509684e-1,.4769798312,.6202096658
-.105372008,.4901450312,.6779634290
-.127158612,.5021867522,.7362416732
-.149900100,.5130677952,.7952636993
.762384456e-1,.3309757635,.4835610077e-1
.647251613e-1,.3555048848,.1117954178
.520520719e-1,.3786242428,.1735209536
.383024996e-1,.4004351158,.2338836403
.235394079e-1,.4210140398,.2931776105
.78098481e-2,.4404182048,.3516569017
-.88520791e-2,.4586890608,.4095474357
-.264232625e-1,.4758546998,.4670560758
-.448903405e-1,.4919313628,.5243778656
-.642490095e-1,.5069242808,.5817022199
-.845038145e-1,.5208279308,.6392186271
-.1056683715,.5336257608,.6971223671
-.1277660715,.5452893398,.7556207214
.892020797e-1,.3530698169,.3135627891e-2
.785558856e-1,.3786529018,.6801085233e-1
.666767213e-1,.4027372888,.1308831901
.536658072e-1,.4254460168,.1921566403
.395996354e-1,.4468720578,.2521625582
.245358997e-1,.4670855438,.3111812745
.85174197e-2,.4861385208,.3694570958
-.84252444e-2,.5040681358,.4272092412
-.262720740e-1,.5208987218,.4846402420
-.450125344e-1,.5366430838,.5419427920
-.646450375e-1,.5513031528,.5993057289
-.851768638e-1,.5648700778,.6569196972
-.1066245275,.5773237868,.7149829590
.1006179017,.3743378442,-.4493255518e-1
.909373161e-1,.4010946412,.2168594396e-1
.799309332e-1,.4262399092,.8594928516e-1
.677231236e-1,.4499248242,.1483328149
.544073677e-1,.4722630102,.2092172931
.400543506e-1,.4933403862,.2689178271
.247172353e-1,.5132215742,.3277032659
.84351589e-2,.5319541452,.3858098566
-.87644364e-2,.5495714552,.4434513357
-.268642941e-1,.5660944822,.5008268132
-.458564388e-1,.5815329172,.5581273085
-.657417765e-1,.5958856612,.6155415990
-.865301372e-1,.6091407642,.6732618739
.1103108988,.3946082185,-.9629307978e-1
.1017207175,.4226904215,-.2753736120e-1
.916850168e-1,.4490155725,.3842305521e-1
.803590728e-1,.4737724085,.1021617740
.678583162e-1,.4971012405,.1641263009
.542697251e-1,.5191077905,.2246782143
.396590600e-1,.5398719915,.2841191439
.240755955e-1,.5594537375,.3427084187
.75552747e-2,.5778967175,.4006756376
-.98771982e-2,.5952309615,.4582300901
-.282070188e-1,.6114744635,.5155682147
-.474285170e-1,.6266341155,.5728799126
-.675448731e-1,.6407060525,.6303542963
.1180593708,.4136583520,-.1515327561
.1107220664,.4432634480,-.8012064982e-1
.1017813893,.4709196200,-.1207048235e-1
.914354357e-1,.4968676520,.5333101029e-1
.798289473e-1,.5212834820,.1166236493
.670699583e-1,.5442984260,.1782321594
.532400103e-1,.5660116040,.2385023354
.384007038e-1,.5864978860,.2977246865
.225979970e-1,.6058131390,.3561506956
.58650815e-2,.6239977080,.4140045191
-.117757220e-1,.6410787220,.4714918657
-.303117684e-1,.6570715530,.5288071316
-.497394432e-1,.6719805940,.5861395371
.1235736088,.4311897208,-.2114508321
.1177080206,.4625837158,-.1366739601
.1100246994,.4917682248,-.6601568616e-1
.1007838213,.5190594948,.1443980001e-2
.901708012e-1,.5446829038,.6637663540e-1
.783218223e-1,.5688039818,.1292948482
.653388416e-1,.5915466628,.1906048464
.512988992e-1,.6130045868,.2506395412
.362601152e-1,.6332484008,.3096803583
.202656515e-1,.6523305708,.3679723793
.33463591e-2,.6702885938,.4257353510
-.144774898e-1,.6871471138,.4831721422
-.331951265e-1,.7029192188,.5404756209
.1264592844,.4467845432,-.2771818875
.1223733208,.4803417022,-.1980297072
.1161666967,.5113211612,-.1240543539
.1081948668,.5401549832,-.5401306086e-1
.987023765e-1,.5671404142,.1296175746e-1
.878645798e-1,.5924906032,.7750881540e-1
.758107990e-1,.6163627422,.1401189935
.626380786e-1,.6388747902,.2011837171
.484197895e-1,.6601159302,.2610255530
.332111935e-1,.6801533362,.3199186277
.170531413e-1,.6990366602,.3781028828
-.254709e-4,.7168010282,.4357945624
-.180060932e-1,.7334689872,.4931943238
.1261489229,.4598239502,-.3504298727
.1243018570,.4961025292,-.2653725104
.1198817189,.5292534942,-.1870652189
.1134015537,.5599004602,-.1137234948
.1051970585,.5884514732,-.4417190227e-1
.955008023e-1,.6151892242,.2241715428e-1
.844803527e-1,.6403173952,.8665704080e-1
.722596762e-1,.6639866692,.1490218308
.589319576e-1,.6863103132,.2098914175
.445676622e-1,.7073739812,.2695802951
.292197787e-1,.7272420802,.3283568811
.129273030e-1,.7459620102,.3864571166
-.42824449e-2,.7635669802,.4440945387
.1217576920,.4693145802,-.4339686509
.1228935768,.5092189902,-.3404876226
.1207242832,.5451058952,-.2563045417
.1160520611,.5779504472,-.1786277315
.1093643904,.6083451872,-.1057610375
.1009826594,.6366807662,-.3657766885e-1
.911306737e-1,.6632292252,.2972078884e-1
.799702584e-1,.6881872652,.9372908842e-1
.676214056e-1,.7117007392,.1559088945
.541744189e-1,.7338794102,.2166315597
.396975834e-1,.7548062842,.2762055876
.242421736e-1,.7745436822,.3348951590
.78457787e-2,.7931372972,.3929332575
.1117219605,.4734516390,-.5329154242
.1172097458,.5186458580,-.4262961990
.1180488385,.5581895080,-.3336775782
.1156623806,.5938124490,-.2500793314
.1108193015,.6264493230,-.1728264096
.1039904260,.6566724250,-.1002801333
.954877253e-1,.6848609640,-.3134565908e-1
.855291982e-1,.7112799200,.3475612209e-1
.742728424e-1,.7361213420,.9860760005e-1
.618359872e-1,.7595278470,.1606621641
.483069990e-1,.7816068450,.2212854608
.337526929e-1,.8024395510,.2807819784
.182231799e-1,.8220868760,.3394130679
.925807542e-1,.4681408940,-.6590837674
.1055812202,.5224669070,-.5282323124
.1108379255,.5673802440,-.4223310146
.1115256102,.6067398590,-.3301504296
.1090277827,.6422274260,-.2468507199
.1040967821,.6747574300,-.1698148280
.971950676e-1,.7048919950,-.9743292647e-1
.886298511e-1,.7330045450,-.2862629927e-1
.786161858e-1,.7593564780,.3737438342e-1
.673101185e-1,.7841374760,.1011452267
.548276206e-1,.8074885020,.1631354029
.412560658e-1,.8295157580,.2237076441
.266615128e-1,.8502995440,.2831643976
.77884202e-1,.2812147489,.1906899504
.63842820e-1,.3026709238,.2507230623
.48802667e-1,.3229130744,.3097626649
.32806886e-1,.3419936430,.3680537938
.15886312e-1,.3599501090,.4258161686
-.1938797e-2,.3768070960,.4832526394
-.20657685e-1,.3925776800,.5405560639
-.40268551e-1,.4072640500,.5979153069
-.60778456e-1,.4208576210,.6555209019
-.82203684e-1,.4333386010,.7135708541
-.104570587,.4446749590,.7722770861
-.127917024,.4548206760,.8318731470
-.152294598,.4637130270,.8926240273
.94727045e-1,.3053744267,.1520665398
.81346531e-1,.3276338986,.2128707435
.66932440e-1,.3486370380,.2725084730
.51536997e-1,.3684473270,.3312462582
.35198572e-1,.3871114060,.3893187166
.17943954e-1,.4046618350,.4469384923
-.210184e-3,.4211188830,.5043040263
-.19256413e-1,.4364915780,.5616060406
-.39196174e-1,.4507781690,.6190333568
-.60039851e-1,.4639660350,.6767785577
-.81807297e-1,.4760310430,.7350439586
-.104528886,.4869362730,.7940484387
-.128247216,.4966299470,.8540358075
.1103804644,.3290570021,.1114653864
.977132579e-1,.3521835112,.1731989890
.839691867e-1,.3740010712,.2335680557
.692113088e-1,.3945863332,.2928669728
.534867509e-1,.4139965772,.3513499496
.368296758e-1,.4322733312,.4092430342
.19263248e-1,.4494447512,.4667531707
.800880e-3,.4655271402,.5240754482
-.18553078e-1,.4805257832,.5813992934
-.38803126e-1,.4944352162,.6389141819
-.59962828e-1,.5072389472,.6968153472
-.82055522e-1,.5189086112,.7553099878
-.105115567,.5294024412,.8146245385
.1247476089,.3521737990,.6867263246e-1
.1128562328,.3762433430,.1315264569
.998340155e-1,.3989383300,.1927851589
.857572267e-1,.4203514670,.2527794701
.706833890e-1,.4405526730,.3117892771
.546551836e-1,.4595938280,.3700585749
.377030534e-1,.4775119380,.4278063716
.198469144e-1,.4943312080,.4852350632
.10972068e-2,.5100643300,.5425372710
-.185445741e-1,.5247131210,.5999018259
-.390858000e-1,.5382686210,.6575194191
-.605430860e-1,.5507106340,.7155884244
-.829431530e-1,.5620066810,.7743213752
.1377132449,.3746178322,.2342286494e-1
.1266734652,.3997225052,.8763056790e-1
.1144351010,.4233702802,.1499696512
.1010909357,.4456739342,.2108188110
.867111316e-1,.4667187502,.2704917029
.713484384e-1,.4865688472,.3292561526
.550416574e-1,.5052713902,.3873476903
.378179426e-1,.5228593832,.4449795695
.196942954e-1,.5393534922,.5023506026
.6784505e-3,.5547631202,.5596516783
-.192307316e-1,.5690868802,.6170715904
-.400433235e-1,.5823125302,.6748026959
-.617788427e-1,.5944163462,.7330468752
.1491381303,.3962575310,-.2461812527e-1
.1390434854,.4225110330,.4123493612e-1
.1276643376,.4472032000,.1048880079
.1151146832,.4704725960,.1667841573
.1014804527,.4924236690,.2272818890
.868266028e-1,.5131353780,.2866806809
.712017739e-1,.5326668450,.3452383346
.546413839e-1,.5510611210,.4031833884
.371696833e-1,.5683476830,.4607244274
.188010676e-1,.5845440290,.5180574832
-.4591807e-3,.5996565800,.5753723054
-.206146257e-1,.6136810030,.6328580975
-.416778580e-1,.6266019950,.6907092112
.1588508404,.4169274658,-.7587901921e-1
.1498193617,.4444732658,-.8008823368e-2
.1393927574,.4703232648,.5724987504e-1
.1277131366,.4946502028,.1204284962
.1148866704,.5175831288,.1819460678
.1009935259,.5392194878,.2421444239
.860942396e-1,.5596328648,.3013112903
.702339218e-1,.5788780908,.3596961783
.534450546e-1,.5969946478,.4175218844
.357493395e-1,.6140089168,.4749932384
.171588560e-1,.6299355788,.5323041514
-.23233202e-2,.6447783718,.5896437111
-.227029647e-1,.6585302778,.6472018633
.1666353624,.4364140908,-.1309226781
.1588199586,.4654380508,-.6054819073e-1
.1494640356,.4925894828,.6688636393e-2
.1387483464,.5180880958,.7144413590e-1
.1268059019,.5420955648,.1342208318
.1137363935,.5647330688,.1954181057
.996151708e-1,.5860921968,.2553640924
.844990414e-1,.6062419968,.3143368386
.684301073e-1,.6252336458,.3725790521
.514383238e-1,.6431035558,.4303088563
.335431771e-1,.6598754118,.4877280891
.147547108e-1,.6755614208,.5450290879
-.49259638e-2,.6901629368,.6024006456
.1722113583,.4544327695,-.1905106608
.1658166701,.4851836335,-.1169718393
.1576849984,.5138231625,-.4726774122e-1
.1480526012,.5406385365,.1944154326e-1
.1370894542,.5658363595,.8377719552e-1
.1249211817,.5895693315,.1462184878
.1116421681,.6119521785,.2071488828
.973237825e-1,.6330716495,.2668853757
.820197223e-1,.6529930165,.3256981525
.657695626e-1,.6717643835,.3838243957
.486011170e-1,.6894195575,.4414784757
.305319752e-1,.7059799185,.4988598870
.115704200e-1,.7214555355,.5561598306
.1752007338,.4705883898,-.2557146234
.1705122443,.5034131698,-.1780782912
.1638111497,.5337915918,-.1052421594
.1554179305,.5621132068,-.3608251065e-1
.1455558357,.5886493788,.3019721161e-1
.1343863243,.6135963608,.9419057247e-1
.1220291322,.6370996988,.1563584502
.1085743783,.6592689308,.2170716475
.940902095e-1,.6801868888,.2766382825
.786277868e-1,.6999157638,.3353222690
.622246103e-1,.7185011358,.3933563984
.449067204e-1,.7359746568,.4509520885
.266901234e-1,.7523557838,.5083070420
.1750662549,.4843023718,-.3281245740
.1725047981,.5197125938,-.2449949989
.1675234738,.5521814278,-.1680829935
.1605800134,.5822652498,-.9579501538e-1
.1519789333,.6103342078,-.2706148650e-1
.1419336119,.6366476638,.3888136729e-1
.1305989871,.6613939488,.1026060788
.1180902540,.6847130848,.1645594212
.1044942209,.7067105878,.2251024695
.898765149e-1,.7274662308,.2845365028
.742863076e-1,.7470397808,.3431205972
.577594571e-1,.7654748238,.4010841788
.403205924e-1,.7828012988,.4586364211
.1709857304,.4946617345,-.4102833006
.1712213993,.5334719155,-.3194025928
.1683887510,.5685525005,-.2369945659
.1631922034,.6007597285,-.1606095561
.1560697677,.6306260035,-.8872191233e-1
.1473146431,.6585077165,-.2030035904e-1
.1371331477,.6846556505,.4539551744e-1
.1256755257,.7092524305,.1089231566
.1130536848,.7324340815,.1707191790
.993520228e-1,.7543031915,.2311376346
.846343264e-1,.7749372945,.2904748548
.689483042e-1,.7943943785,.3489864241
.523286010e-1,.8127165595,.4068993429
.1615490539,.5000535228,-.5067488992
.1657808255,.5437210358,-.4040069387
.1657856606,.5822506308,-.3137853814
.1627806793,.6171217458,-.2318328241
.1574467444,.6491619728,-.1557818078
.1502096872,.6788889238,-.8414853416e-1
.1413556630,.7066504248,-.1592552937e-1
.1310865698,.7326918808,.4961300963e-1
.1195496990,.7571923318,.1130150627
.1068548812,.7802852788,.1747108659
.930849860e-1,.8020714508,.2350500391
.783026308e-1,.8226269588,.2943257893
.625545895e-1,.8420086588,.3527915046
.108274722,.2764595265,.2480588774
.93278255e-1,.2967547796,.3071374904
.77324510e-1,.3158864424,.3654572717
.60444826e-1,.3338926118,.4232388800
.42659911e-1,.3507984548,.4806857646
.23980928e-1,.3666175448,.5379910983
.4410076e-2,.3813525518,.5953438017
-.16059306e-1,.3949953788,.6529342135
-.37443076e-1,.4075267518,.7109598721
-.59767108e-1,.4189152208,.7696319255
-.83068705e-1,.4291154408,.8291827635
-.107398795,.4380655108,.8898757184
-.132825222,.4456829628,.9520180889
.126212072,.3013181645,.2110470332
.111828453,.3223583421,.2707159985
.96462116e-1,.3422040110,.3294774703
.80151815e-1,.3609022750,.3875668741
.62924663e-1,.3784860900,.4451973955
.44797625e-1,.3949760780,.5025678068
.25778402e-1,.4103815990,.5598689760
.5865821e-2,.4247012280,.6172897005
-.14950227e-1,.4379226770,.6750223621
-.36689294e-1,.4500221800,.7332688881
-.59381415e-1,.4609632290,.7922475432
-.83068785e-1,.4706945360,.8522012369
-.107808324,.4791469130,.9134083133
.1430430246,.3257832793,.1722572928
.1293150504,.3476204065,.2326450628
.1145724264,.3682242085,.2919584792
.988624994e-1,.3876522375,.3504522739
.822196156e-1,.4059462405,.4083528516
.64667099e-1,.4231345695,.4658673943
.46218504e-1,.4392336995,.5231911247
.26878319e-1,.4542490855,.5805135139
.6642182e-2,.4681754265,.6380239921
-.14503328e-1,.4809964085,.6959176598
-.36581390e-1,.4926838575,.7544014799
-.59626181e-1,.5031962305,.8137015244
-.83684844e-1,.5124762245,.8740720494
.1586855980,.3497818242,.1315190798
.1456635101,.3724769682,.1927779509
.1315868434,.3938902532,.2527723942
.1165131211,.4140916002,.3117823046
.1004850271,.4331328912,.3700516772
.835330056e-1,.4510511322,.4277995229
.656769733e-1,.4678705322,.4852282410
.469273715e-1,.4836037832,.5425304537
.272856975e-1,.4982527042,.5998949889
.6744579e-2,.5118083352,.6575125407
-.14712597e-1,.5242504822,.7155814805
-.37112549e-1,.5355466672,.7743143380
-.60493570e-1,.5456503472,.8339455682
.1730436910,.3732273285,.8862350373e-1
.1607873006,.3968531915,.1509364469
.1474263704,.4191364665,.2117648380
.1330307537,.4401620615,.2714214831
.1176529586,.4599938035,.3301736080
.1013315873,.4786786105,.3882563201
.840936246e-1,.4962492855,.4458825917
.659559213e-1,.5127263095,.5032510626
.469260711e-1,.5281189125,.5605525430
.270027948e-1,.5424255415,.6179758406
.61758767e-2,.5556337775,.6757134148
-.155743550e-1,.5677197095,.7339673445
-.382780684e-1,.5786466685,.7929561363
.1860032561,.3960157078,.4331194776e-1
.1745848961,.4206602118,.1069022096
.1619991814,.4438857748,.1687482173
.1483312728,.4657959138,.2292062430
.1336455426,.4864688718,.2885741815
.1179901636,.5059632038,.3471087241
.1014001676,.5243214928,.4050376364
.838994715e-1,.5415728108,.4625689938
.655021692e-1,.5577342878,.5198985303
.462132573e-1,.5728119968,.5772158914
.260288862e-1,.5868012608,.6347103579
.49361680e-2,.5996864118,.6925765422
-.170874866e-1,.6114399938,.7510205426
.1974268998,.4180193152,-.4740263006e-2
.1869356358,.4437907202,.6040470922e-1
.1751973227,.4680463142,.1234925035
.1623166550,.4909133582,.1849376589
.1483727066,.5124879642,.2450788752
.1334251711,.5328426932,.3042016683
.1175184794,.5520315522,.3625539961
.1006845469,.5700933322,.4203575820
.829445796e-1,.5870538102,.4778165624
.643102032e-1,.6029271202,.5351244760
.447840568e-1,.6177164672,.5924703212
.243599270e-1,.6314142992,.6500442292
.30224319e-2,.6440019202,.7080432361
.2071461010,.4390781795,-.5594805384e-1
.1976939414,.4661126335,.1110385295e-1
.1868922311,.4915066865,.7571225552e-1
.1748713731,.5154188435,.1383714413
.1617291897,.5379680085,.1994751624
.1475396314,.5592440715,.2593476232
.1323584162,.5793147595,.3182640956
.1162267630,.5982301725,.3764653325
.991738811e-1,.6160258155,.4341681272
.812185964e-1,.6327245725,.4915734810
.623703430e-1,.6483379105,.5488733126
.426296408e-1,.6628664615,.6062563792
.219881217e-1,.6763000525,.6639139304
.2149495079,.4589866618,-.1108537268
.2066809285,.4874597768,-.4143576225e-1
.1969284150,.5141291458,.2504788812e-1
.1858574395,.5391959018,.8920379299e-1
.1735905207,.5628089678,.1515014974
.1602197974,.5850803388,.2123177820
.1458149419,.6060947048,.2719649607
.1304283218,.6259157188,.3307099060
.1140984239,.6445901618,.3887874823
.968521337e-1,.6621507148,.4464104983
.787062136e-1,.6786177508,.5037774928
.596681749e-1,.6940004008,.5610792316
.397366575e-1,.7082970128,.6185045304
.2205644944,.4774721205,-.1701867108
.2136717571,.5076175975,-.9778458254e-1
.2051142507,.5357395175,-.2896222008e-1
.1951073870,.5620997205,.3705091150e-1
.1838074555,.5868881745,.1008316817
.1713305919,.6102460505,.1628297871
.1577642931,.6322796965,.2234083134
.1431747113,.6530695245,.2828699599
.1276114338,.6726758075,.3414748046
.1111106611,.6911425495,.3994529713
.936973192e-1,.7085000475,.4570140958
.753864132e-1,.7247665405,.5143548205
.561838008e-1,.7399491485,.5716651256
.2236263184,.4941588072,-.2349654829
.2183756278,.5263002202,-.1587123258
.2112080553,.5561116322,-.8692503765e-1
.2024140083,.5839460332,-.1858179060e-1
.1921980533,.6100520822,.4705205136e-1
.1807092692,.6346109822,.1105301737
.1680587412,.6577577652,.1722866806
.1543302640,.6795942812,.2326738667
.1395871640,.7001975042,.2919868299
.1238767805,.7196249782,.3504802858
.1072334538,.7379184432,.4083806298
.896805028e-1,.7551062442,.4658950336
.712314789e-1,.7712048522,.5232187180
.2236224733,.5085019362,-.3066851596
.2204022014,.5431113592,-.2252982290
.2148959542,.5749421402,-.1496633829
.2075147310,.6044938542,-.7834777730e-1
.1985360460,.6321038252,-.1037308626e-1
.1881563472,.6580108392,.5496853133e-1
.1765192694,.6823894882,.1182133660
.1637320644,.7053701362,.1797837437
.1498756973,.7270511992,.2400237963
.1350113214,.7475070102,.2992228631
.1191845407,.7667930012,.3576315986
.1024282490,.7849491552,.4154735867
.847645082e-1,.8020022892,.4729541669
.2197812244,.5196544122,-.3877001179
.2192005689,.5574723352,-.2991356812
.2157544190,.5918071992,-.2183380534
.2100665839,.6234172582,-.1431384629
.2025329443,.6527837072,-.7215592260e-1
.1934221391,.6802330842,-.4441989855e-2
.1829249854,.7059973302,.6069265679e-1
.1711813234,.7302464232,.1237722055
.1582957139,.7531074592,.1852107839
.1443471315,.7746764332,.2453468155
.1293951936,.7950258112,.3044656131
.1134842702,.8142095242,.3628149912
.966462237e-1,.8322663042,.4206165810
.137464707,.2706574435,.3039562032
.121561952,.2898510864,.3623112755
.104731846,.3079175179,.4201167212
.86995636e-1,.3248825648,.4775767352
.68364989e-1,.3407604058,.5348848852
.48842578e-1,.3555542938,.5922301785
.28422229e-1,.3692567218,.6498027302
.7088598e-2,.3818490408,.7077995336
-.15183614e-1,.3933004968,.7664308162
-.38431043e-1,.4035665588,.8259275897
-.62703806e-1,.4125863098,.8865512134
-.88068722e-1,.4202785308,.9486061910
-.114614163,.4265358018,1.012458188
.156423472,.2961365273,.2683492889
.141095600,.3160289508,.3271423488
.124822450,.3347723728,.3852544123
.107631568,.3524002738,.4428993935
.89540303e-1,.3689337448,.5002765080
.70556717e-1,.3843825838,.5575768271
.50679989e-1,.3987457918,.6149891215
.29900375e-1,.4120115278,.6727055200
.8198716e-2,.4241565008,.7309274435
-.14454577e-1,.4351447458,.7898723579
-.38101169e-1,.4449256198,.8497820019
-.62797329e-1,.4534307248,.9109330504
-.88617715e-1,.4605693128,.9736516905
.1743459783,.3212914879,.2311261966
.1596284711,.3419258205,.2904635975
.1439426303,.3613831255,.3489753025
.1273231033,.3797055195,.4068883149
.109793476,.3969216705,.4644102066
.91367541e-1,.4130483435,.5217364254
.72050010e-1,.4280912675,.5790565162
.51836749e-1,.4420454145,.6365598414
.30714572e-1,.4548947585,.6944412823
.8660562e-2,.4666114425,.7529074179
-.14359159e-1,.4771542885,.8121837340
-.38391374e-1,.4864664305,.8725236343
-.63498708e-1,.4944717455,.9342203582
.1911616863,.3460609172,.1921489019
.1770956451,.3674871172,.2521549634
.1620320338,.3877007542,.3111737895
.1460136731,.4067538772,.3694496920
.1290711259,.4246836332,.4272018905
.1112244107,.4415143592,.4846329203
.924840641e-1,.4572588592,.5419354746
.728516750e-1,.4719190662,.5992983917
.523199646e-1,.4854861332,.6569123154
.30872420e-1,.4979399862,.7149755066
.8482431e-2,.5092482832,.7737003127
-.14888161e-1,.5193646382,.8333209108
-.39291328e-1,.5282258812,.8941031964
.2067889082,.3703733238,.1512500174
.1934225426,.3926499928,.2120716877
.1790217985,.4136693568,.2717230777
.1636391061,.4334951448,.3304712158
.1473130027,.4521741998,.3885510758
.1300704190,.4697392578,.4461755385
.1119281559,.4862107388,.5035431879
.928937617e-1,.5015978198,.5608448102
.729659124e-1,.5158988898,.6182692162
.521343456e-1,.5291014748,.6760088994
.303793390e-1,.5411816038,.7342660042
.76706682e-2,.5521025358,.7932591393
-.160340882e-1,.5618127098,.8532317202
.2211320795,.3941442308,.1082249323
.2085227140,.4173410448,.1700381871
.1948327091,.4392243248,.2304702831
.1801260547,.4598718488,.2898180890
.1644506183,.4793418018,.3483375716
.1478411793,.4976764578,.4062559930
.1303214357,.5149046228,.4637810966
.1119052838,.5310431878,.5211084277
.925975326e-1,.5460979978,.5784275633
.723941448e-1,.5600641458,.6359278390
.512820361e-1,.5729257288,.6938040439
.292384021e-1,.5846550248,.7522625893
.62294944e-2,.5952110148,.8115287115
.2340780343,.4172721592,.6282089470e-1
.2222948786,.4414732462,.1258397103
.2093727712,.4642899192,.1872298787
.1953899568,.4858172842,.2473277398
.1804054897,.5061271212,.3064171368
.1644632851,.5252728122,.3647448547
.1475948255,.5432926242,.4225318102
.1298209384,.5602118742,.4799816195
.1111529029,.5760442692,.5372875418
.915930248e-1,.5907926152,.5946385184
.711347520e-1,.6044489462,.6522248340
.497623451e-1,.6169941312,.7102439023
.274500599e-1,.6283968772,.7689066622
.2454908079,.4396329515,.1472143727e-1
.2346188928,.4649416695,.7921069444e-1
.2225339692,.4887759525,.1417746961
.2093323521,.5112528755,.2028026807
.1950868631,.5324609545,.2626156861
.1798523378,.5524668425,.3214867536
.1636692778,.5713197705,.3796550687
.1465662844,.5890545025,.4373363583
.1285616466,.6056932695,.4947309581
.1096642984,.6212469315,.5520304645
.898742732e-1,.6357155295,.6094236253
.691827056e-1,.6490882865,.6671019917
.475713813e-1,.6613430635,.7252658102
.2552041886,.4610714660,-.3647653057e-1
.2453501379,.4876174140,.2981809597e-1
.2341878646,.5125731960,.9382334277e-1
.2218373081,.5360845990,.1560007109
.2083887346,.5582613430,.2167214425
.1939104016,.5791863950,.2762939585
.1784535591,.5989220530,.3349823894
.1620557790,.6175139840,.3930196763
.1447431640,.6349939170,.4506173390
.1265317755,.6513813750,.5079731394
.1074284680,.6666846900,.5652775077
.874312346e-1,.6809014230,.6227193368
.665291066e-1,.6940182400,.6804916464
.2630105754,.4813889848,-.9129768978e-1
.2543113947,.5093386978,-.2276321949e-1
.2441793904,.5355467888,.4302208235e-1
.2327664983,.5601979388,.1066210869
.2201858132,.5834296158,.1684740732
.2065226030,.6053454648,.2289376241
.1918413209,.6260238288,.2883098548
.1761902057,.6455233438,.3468476097
.1596043419,.6638866568,.4047787629
.1421076934,.6811428938,.4623114597
