-.2184904794,.4210214325,-.4142568648
-.2178884148,.4515915428,-.3426684866
-.2192720788,.4797479635,-.2766677769
-.2222476368,.5059694105,-.2148842484
-.2265509799,.5305769109,-.1563999340
-.2319950830,.5537977978,-.1005628096
-.2384421417,.5757995748,-.4688855252e-1
-.2457875617,.5967093771,.4995682631e-2
-.2539501652,.6166258791,.5538557019e-1
-.2628658988,.6356269382,.1045216238
-.2259878091,.4266260532,-.5026170376
-.2224349874,.4607828605,-.4222089814
-.2215923813,.4916453520,-.3499226957
-.2227882363,.5200300584,-.2834079218
-.2256101197,.5464382996,-.2212289699
-.2297833526,.5712039513,-.1624311913
-.2351143828,.5945622804,-.1063401719
-.2414611163,.6166860033,-.5245707522e-1
-.2487159995,.6377058555,-.3991936604e-3
-.2567957281,.6577230932,.5013607808e-1
-.2410766919,.4249843731,-.6125023872
-.2327243169,.4649751199,-.5168347110
-.2286315697,.4997882151,-.4347591640
-.2274001883,.5311232702,-.3613362428
-.2282948396,.5598740950,-.2939903508
-.2308716028,.5865802842,-.2311752491
-.2348381442,.6115971716,-.1718749386
-.2399901163,.6351731487,-.1153779055
-.2461783840,.6574894908,-.6116143570e-1
-.2532905626,.6786828010,-.8826708786e-2
-.2709640755,.4075519435,-.7689418221
-.2519927153,.4604502528,-.6372987085
-.2423175957,.5020488185,-.5372830965
-.2374107408,.5378514763,-.4526667345
-.2356042004,.5698856470,-.3775436042
-.2360585952,.5991716124,-.3089686575
-.2382800729,.6263096560,-.2452200283
-.2419488842,.6516884412,-.1851862279
-.2468441672,.6755764285,-.1280988764
-.2528061386,.6981678373,-.7339904831e-1
-.3371778277+.5360530255e-1*I,.3484359145+.6515818526e-1*I,-1.047197551+.1962445622*I
-.2914407288,.4338684500,-.8228657335
-.2670883258,.4933075128,-.6723626709
-.2553475166,.5374169623,-.5654642986
-.2492389831,.5746802803,-.4770444293
-.2466078568,.6077167515,-.3994475597
-.2464423215,.6377562509,-.3291148472
-.2481696246,.6654949733,-.2640461634
-.2514280129,.6913726341,-.2029833464
-.2559718722,.7156877833,-.1450724952
-.3305870012+.1112976090*I,.3806449542+.1352841954*I,-1.047197551+.3993702817*I
-.3452264427+.7393419158e-1*I,.3926887473+.8986830637e-1*I,-1.047197551+.2691463313*I
-.3257407934,.4462121833,-.9211313534
-.2878727496,.5220797453,-.7223183662
-.2727154810,.5703419616,-.6038352585
-.2648013029,.6098000730,-.5095963921
-.2609860063,.6442759214,-.4283795447
-.2599536768,.6753690263,-.3555398858
-.2610021811,.7039328405,-.2886195361
-.2637039431,.7304870907,-.2261296638
-.3260391330+.1522849532*I,.4136817450+.1851050310*I,-1.047197551+.5351730391*I
-.3406785735+.1258545404*I,.4257255372+.1529784008*I,-1.047197551+.4485163203*I
-.3553180144+.9369167204e-1*I,.4377693296+.1138838703*I,-1.047197551+.3386907348*I
-.3699574557+.4479954375e-1*I,.4498131224+.5445463101e-1*I,-1.047197551+.1643216557*I
-.3177087445,.5431606354,-.7981853506
-.2959651248,.5994286766,-.6568620566
-.2851677530,.6423913602,-.5531201123
-.2795975829,.6790002900,-.4664116580
-.2773322758,.7115921004,-.3899172912
-.2774401214,.7412993018,-.3203635152
-.3239491821+.1885973185*I,.4477144164+.2292433479*I,-1.047197551+.6484665263*I
-.3385886225+.1665922438*I,.4597582083+.2024957936*I,-1.047197551+.5806243802*I
-.3532280632+.1422220395*I,.4718020007+.1728733830*I,-1.047197551+.5025845695*I
-.3678675046+.1139795902*I,.4838457935+.1385441906*I,-1.047197551+.4084971415*I
-.3825069444+.7775404774e-1*I,.4958895851+.9451140850e-1*I,-1.047197551+.2827010632*I
-.3724510837,.5379509510,-.9560826678
-.3282675560,.6214950922,-.7344019746
-.3121858719,.6708809515,-.6127486823
-.3038208689,.7108870494,-.5170397380
-.2997201834,.7457097932,-.4349395677
-.3249285300+.2234595915*I,.4829906823+.2716190520*I,-1.047197551+.7507809166*I
-.3395679714+.2039874990*I,.4950344752+.2479503821*I,-1.047197551+.6944137934*I
-.3542074122+.1832422346*I,.5070782675+.2227341494*I,-1.047197551+.6321888287*I
-.3688468526+.1607315757*I,.5191220594+.1953720489*I,-1.047197551+.5621328126*I
-.3834862942+.1355790087*I,.5311658525+.1647986626*I,-1.047197551+.4807963186*I
-.3981257352+.1059188462*I,.5432096450+.1287462150*I,-1.047197551+.3809710654*I
-.4127651759+.6592452000e-1*I,.5552534374+.8013241010e-1*I,-1.047197551+.2405691316*I
-.3801117891,.6247824915,-.8720549560
-.3496906089,.6915982591,-.6999907392
-.3361364060,.7379119193,-.5869711171
-.3299473051+.2587084727*I,.5199036140+.3144646853*I,-1.047197551+.8478916608*I
-.3445867459+.2409217562*I,.5319474062+.2928446194*I,-1.047197551+.7996714959*I
-.3592261870+.2223659533*I,.5439911989+.2702897156*I,-1.047197551+.7476670656*I
-.3738656277+.2028300955*I,.5560349911+.2465435379*I,-1.047197551+.6910013696*I
-.3885050688+.1819988571*I,.5680787837+.2212228022*I,-1.047197551+.6283879568*I
-.4031445100+.1593650717*I,.5801225763+.1937110393*I,-1.047197551+.5577958842*I
-.4177839506+.1340185598*I,.5921663686+.1629019095*I,-1.047197551+.4756470305*I
-.4324233913+.1039943675*I,.6042101608+.1264069772*I,-1.047197551+.3743576796*I
-.4470628323+.6291890239e-1*I,.6162539534+.7647902914e-1*I,-1.047197551+.2297944580*I
-.4106420539,.6903623376,-.8579404048
-.154886722,.4374062608,-.2893580264
-.157571370,.4639813138,-.2268237259
-.161628754,.4888877814,-.1677449651
-.166859338,.5123682042,-.1114267773
-.173117116,.5346000553,-.5735706276e-1
-.180291845,.5557173356,-.5144153337e-2
-.188298299,.5758236393,.4552084651e-1
-.197069422,.5950004753,.9488801810e-1
-.206551789,.6133127818,.1431645301
-.2167024947,.6308127103,.1905256228
-.1559271910,.4492650817,-.3604045024
-.1568466987,.4779856951,-.2931274980
-.1594436272,.5046673723,-.2303649802
-.1634271335,.5296636395,-.1711061231
-.1685937760,.5532217852,-.1146425338
-.1747950081,.5755223683,-.6045349845e-1
-.1819188481,.5967015056,-.8141534588e-2
-.1898788274,.6168643004,.4260632027e-1
-.1986069730,.6360933762,.9204307734e-1
-.2080491617,.6544545197,.1403780684
-.1614093993,.4575529115,-.4424460471
-.1599341523,.4891843896,-.3683048928
-.1606413538,.5181630637,-.3004377271
-.1630664086,.5450536554,-.2372256423
-.1669055484,.5702254036,-.1776128304
-.1719475012,.5939351112,-.1208639611
-.1780386495,.6163695031,-.6644108953e-1
-.1850635531,.6376688995,-.1393516641e-1
-.1929332830,.6579413940,.3697484476e-1
-.2015780540,.6772718125,.8654775962e-1
-.1730885954,.4603135228,-.5410846588
-.1680252220,.4963064322,-.4559763468
-.1661096301,.5284731552,-.3805284505
-.1664812754,.5578597047,-.3117206674
-.1686363752,.5850784330,-.2477961599
-.1722498065,.6105245318,-.1876247073
-.1770975060,.6344703582,-.1304268748
-.1830176415,.6571126188,-.7563676395e-1
-.1898892075,.6785983998,-.2282666307e-1
-.1976193384,.6990405798,.2833742180e-1
-.1949116696,.4529713865,-.6695945503
-.1833430458,.4968715447,-.5632737749
-.1773314656,.5340170134,-.4751629684
-.1747657868,.5669739321,-.3977639178
-.1746489678,.5969542150,-.3275704413
-.1764148442,.6246460523,-.2626056659
-.1797051124,.6504849631,-.2016235004
-.1842761670,.6747670555,-.1437769948
-.1899537874,.6977040982,-.8845795938e-1
-.1966086572,.7194532765,-.3521073063e-1
-.2445121563,.4143760166,-.8905894752
-.2114580351,.4843921688,-.7090991635
-.1972656424,.5314815609,-.5939099518
-.1898389312,.5703471472,-.5012532582
-.1863368316,.6044423019,-.4210010886
-.1855310469,.6352600362,-.3488219070
-.1867555798,.6636098846,-.2823858372
-.1896008874,.6899896532,-.2202673302
-.1937939263,.7147312299,-.1615174141
-.1991421513,.7380686582,-.1054651302
-.2804863519+.8667519203e-1*I,.3952250104+.1053552159*I,-1.047197551+.3141580990*I
-.2951257924+.2819128627e-1*I,.4072688026+.3426700282e-1*I,-1.047197551+.1036838063*I
-.2347120126,.5105411005,-.7670154830
-.2159122100,.5632308806,-.6359685248
-.2063107825,.6047398723,-.5361964471
-.2014483610,.6404885200,-.4517195459
-.1996728687,.6724849528,-.3766887399
-.2001508653,.7017422291,-.3081801001
-.2023912990,.7288572317,-.2444816127
-.2060759396,.7542167763,-.1844870887
-.2762155876+.1345799572*I,.4283740758+.1635842979*I,-1.047197551+.4775009305*I
-.2908550281+.1046882120*I,.4404178680+.1272503575*I,-1.047197551+.3767438631*I
-.3054944694+.6401237519e-1*I,.4524616607+.7780816458e-1*I,-1.047197551+.2337174859*I
-.2703910994,.5249687114,-.8628802743
-.2411989270,.5902905979,-.6952024566
-.2279718903,.6362065818,-.5832921087
-.2210504615,.6744579906,-.4922668905
-.2178780716,.7081523756,-.4130247552
-.2173128860,.7386776578,-.3415430098
-.2187254416,.7667989615,-.2756210881
-.2744652006+.1740613615*I,.4625443285+.2115746372*I,-1.047197551+.6039340487*I
-.2891046420+.1505850603*I,.4745881212+.1830387814*I,-1.047197551+.5297036132*I
-.3037440824+.1238727960*I,.4866319133+.1505695558*I,-1.047197551+.4418829779*I
-.3183835231+.9112181154e-1*I,.4986757056+.1107601598*I,-1.047197551+.3297274730*I
-.3330229644+.3939549559e-1*I,.5107194983+.4788591571e-1*I,-1.047197551+.1446462225*I
-.2775976618,.6079282147,-.7860899440
-.2570400964,.6627545864,-.6489184075
-.2467072766,.7051525987,-.5467228686
-.2414086490,.7414314630,-.4608731318
-.2393300755,.7737962959,-.3849384657
-.2758793824+.2109384769*I,.4979967782+.2563994175*I,-1.047197551+.7147609229*I
-.2905188234+.1906834573*I,.5100405704+.2317790861*I,-1.047197551+.6547671641*I
-.3051582634+.1688651154*I,.5220843621+.2052585090*I,-1.047197551+.5877481288*I
-.3197977049+.1447783774*I,.5341281552+.1759806566*I,-1.047197551+.5109110950*I
-.3344371453+.1170309208*I,.5461719472+.1422531364*I,-1.047197551+.4188418023*I
-.3490765864+.8198658256e-1*I,.5582157398+.9965612877e-1*I,-1.047197551+.2976612313*I
-.3637160272+.6121196134e-2*I,.5702595321+.7440421240e-2*I,-1.047197551+.2255139341e-1*I
-.2986262024,.6792156454,-.7490402325
-.2813666204,.7300332601,-.6233286825
-.2724497062,.7707102149,-.5258115353
-.97942774e-1,.4469907140,-.1814267995
-.102911074,.4707899496,-.1245083423
-.108937310,.4933032417,-.6994664586e-1
-.115903960,.5146734476,-.1732566966e-1
-.123720616,.5350104545,.3368047469e-1
-.132316407,.5544004086,.8333409077e-1
-.141635014,.5729117685,.1318513456
-.151631272,.5905994313,.1794142189
-.162268802,.6075076161,.2261789461
-.173518317,.6236719231,.2722821721
-.94655602e-1,.4626261356,-.2421355224
-.98390404e-1,.4879247069,-.1822652592
-.103342454,.5117436926,-.1253092845
-.109354382,.5342743780,-.7071689018e-1
-.116308199,.5556601810,-.1807048860e-1
-.124113170,.5760113916,.3295689808e-1
-.132698183,.5954144470,.8262834366e-1
-.142006735,.6139380278,.1311605844
-.1519935217,.6316372038,.1787360265
-.1626220502,.6485563304,.2255112254
-.945585617e-1,.4760842551,-.3099348803
-.967567740e-1,.5032505785,-.2461246577
-.1004061659,.5286529685,-.1860426298
-.1052847574,.5525612439,-.1289165624
-.1112320496,.5751704962,-.7418508701e-1
-.1181279359,.5966267148,-.2142351887e-1
-.1258801857,.6170420083,.2970004702e-1
-.1344165918,.6365041467,.7945221242e-1
-.1436798226,.6550828167,.1280523007
-.1536239295,.6728338698,.1756846500
-.984580450e-1,.4865323785,-.3871807485
-.986433368e-1,.5161454422,-.3178465657
-.1006494178,.5435453053,-.2535255758
-.1041388050,.5691421838,-.1930444233
-.1088801088,.5932173354,-.1355983919
-.1147068305,.6159731423,-.8060566447e-1
-.1214948226,.6375605084,-.2762797477e-1
-.1291490090,.6580950003,.2367596947e-1
-.1375951041,.6776669132,.7357947121e-1
-.1467742105,.6963478377,.1223067617
-.1076848607,.4925350018,-.4779684684
-.1050214768,.5256106823,-.4002740086
-.1048319611,.5556793291,-.3298726944
-.1065402933,.5834411116,-.2647528504
-.1097830124,.6093378188,-.2036503480
-.1143135112,.6336692083,-.1457078476
-.1199556815,.6566493403,-.9031071268e-1
-.1265789502,.6784369308,-.3699903532e-1
-.1340837445,.6991530107,.1458335328e-1
-.1423925119,.7188918484,.6472033921e-1
-.1248345190,.4911657358,-.5907317072
-.1175607742,.5298453909,-.4985698491
-.1141579449,.5638198796,-.4186223906
-.1134243732,.5945498365,-.3466529785
-.1147052231,.6228312319,-.2803712474
-.1175965741,.6491550336,-.2183713735
-.1218285725,.6738492555,-.1597154507
-.1272106388,.6971455485,-.1037392716
-.1336026304,.7192142603,-.4995059884e-1
-.1408983377,.7401844898,.2028790090e-2
-.1571467974,.4739169887,-.7503495992
-.1397786077,.5248666158,-.6242628653
-.1308120573,.5656039024,-.5265826589
-.1263369395,.6008817769,-.4433175774
-.1248337601,.6325472081,-.3690939026
-.1255195641,.6615518899,-.3011670435
-.1279273427,.6884634819,-.2379095932
-.1317519997,.7136528341,-.1782611268
-.1367814627,.7373777239,-.1214835546
-.1428615977,.7598255029,-.6703717748e-1
-.2304171608+.5282219738e-1*I,.4098178127+.6420630722e-1*I,-1.047197551+.1934131512*I
-.1840234905,.4960484187,-.8203837497
-.1599455506,.5551538662,-.6708493212
-.1482990813,.5991486428,-.5642675012
-.1422435953,.6363474824,-.4760167745
-.1396482553,.6693404536,-.3985281047
-.1395093470,.6993475881,-.3282715146
-.1412577279,.7270606907,-.2632596281
-.1445335331,.7529171814,-.2022408880
-.1490922477,.7772142728,-.1443651995
-.2264299727+.1148151035*I,.4430817746+.1395597716*I,-1.047197551+.4113338712*I
-.2410694139+.7892423972e-1*I,.4551255672+.9593379740e-1*I,-1.047197551+.2868434828*I
-.2348682511,.4925014789,-.9703355132
-.1878401676,.5795032284,-.7383111468
-.1714503161,.6292636700,-.6155980801
-.1629384998,.6694482216,-.5194090332
-.1587457597,.7043828598,-.4370230889
-.1574430180,.7358046549,-.3633904086
-.1582826986,.7646222982,-.2958919658
-.1608149056,.7913826453,-.2329605285
-.2250287100+.1586611916*I,.4773934833+.1928554607*I,-1.047197551+.5555582261*I
-.2396681511+.1332129592*I,.4894372758+.1619226879*I,-1.047197551+.4729840399*I
-.2543075920+.1029957148*I,.5014810682+.1251930975*I,-1.047197551+.3709196612*I
-.2689470327+.6132412246e-1*I,.5135248605+.7454054620e-1*I,-1.047197551+.2240666797*I
-.2307024915,.5898500610,-.8510941150
-.2030210133,.6533356732,-.6887950471
-.1902230918,.6987300596,-.5783364712
-.1835319838,.7367015086,-.4880519259
-.1805115960,.7702111317,-.4092734707
-.1800580579,.8006007053,-.3381139253
-.45859592e-1,.4518810677,-.8458474991e-1
-.52580288e-1,.4735502326,-.3147119947e-1
-.60173395e-1,.4941589682,.1994605890e-1
-.68563306e-1,.5137991743,.6994459746e-1
-.77690130e-1,.5325436475,.1187517659
-.87505940e-1,.5504506487,.1665578951
-.97972157e-1,.5675670674,.2135255314
-.109057703,.5839306822,.2597961422
-.120737656,.5995717831,.3054950782
-.132992278,.6145143643,.3507353926
-.39298727e-1,.4701049220,-.1382361359
-.45077546e-1,.4929189560,-.8313895958e-1
-.51822732e-1,.5145583533,-.3007494425e-1
-.59438059e-1,.5351400785,.2130100321e-1
-.67848404e-1,.5547554476,.7126490081e-1
-.76994238e-1,.5734768150,.1200429539
-.86827913e-1,.5913621002,.1678246413
-.97311073e-1,.6084579243,.2147718705
-.108412820,.6248018458,.2610256170
-.120108383,.6404239732,.3067108601
-.35252111e-1,.4868657354,-.1970124843
-.39914952e-1,.5110362606,-.1393823879
-.45672899e-1,.5338756632,-.8423959076e-1
-.52399446e-1,.5555377171,-.3113788315e-1
-.59997860e-1,.5761400010,.2026949903e-1
-.68392651e-1,.5957742753,.7025975618e-1
-.775240152e-1,.6145132307,.1190599643
-.873440912e-1,.6324150466,.1668602505
-.978143533e-1,.6495265478,.2138230067
-.1089037670,.6658854609,.2600895847
-.341924676e-1,.5017127774,-.2621807223
-.374921248e-1,.5275402753,-.2012222879
-.420711925e-1,.5518126291,-.1433947186
-.477558197e-1,.5747411537,-.8809109939e-1
-.544169379e-1,.5964827365,-.3485659385e-1
-.619560246e-1,.6171571342,.1666149296e-1
-.702962877e-1,.6368576879,.6674457352e-1
-.793769482e-1,.6556582748,.1156227987
-.891493911e-1,.6736179883,.1634885801
-.995744965e-1,.6907843801,.2105060436
-.368028482e-1,.5139670353,-.3356630442
-.383652882e-1,.5419061516,-.2701486172
-.414877218e-1,.5679490682,-.2087405132
-.459157970e-1,.5924049563,-.1505545754
-.514685561e-1,.6154937683,-.9495957958e-1
-.580122065e-1,.6373781373,-.4148474567e-1
-.654449332e-1,.6581818166,.1023352697e-1
-.736875629e-1,.6780010450,.6048438937e-1
-.826775356e-1,.6969118653,.1095036215
-.923648655e-1,.7149750356,.1574878143
-.441515194e-1,.5225171189,-.4206262727
-.433571399e-1,.5533209906,-.3484802446
-.445905606e-1,.5816600349,-.2820685539
-.474431307e-1,.6080309748,-.2199687771
-.516423127e-1,.6327650864,-.1612336909
-.569958719e-1,.6560960307,-.1051934149
-.633625789e-1,.6781954755,-.5135203405e-1
-.706354750e-1,.6991934328,.6711755999e-3
-.787316831e-1,.7191906395,.5117742436e-1
-.875858875e-1,.7382664879,.1004112406
-.581343076e-1,.5252938883,-.5230108124
-.538004832e-1,.5604000181,-.4401860954
-.523973970e-1,.5919437830,-.3662578833
-.531599459e-1,.6208551810,-.2985449483
-.556297276e-1,.6476914070,-.2354501583
-.595063865e-1,.6728175502,-.1759295893
-.645807115e-1,.6964879085,-.1192550064
-.707004169e-1,.7188875892,-.6489298816e-1
-.777509680e-1,.7401558094,-.1243752242e-1
-.856440806e-1,.7603998823,.3843031763e-1
-.830122243e-1,.5174199958,-.6569702530
-.722084383e-1,.5603904769,-.5532069176
-.666345493e-1,.5970039267,-.4664866825
-.643666951e-1,.6295988330,-.3899846672
-.644726279e-1,.6593083596,-.3204254610
-.664154461e-1,.6867851192,-.2559354750
-.698522916e-1,.7124458629,-.1953225816
-.745486069e-1,.7365756992,-.1377711178
-.803358833e-1,.7593794521,-.8269241125e-1
-.870886250e-1,.7810096661,-.2964365554e-1
-.1381810483,.4757173244,-.8910834502
-.1050538939,.5458222517,-.7093311450
-.908449699e-1,.5929317359,-.5940856399
-.834097593e-1,.6318076553,-.5014014233
-.799021579e-1,.6659094961,-.4211323542
-.790923767e-1,.6967320885,-.3489415516
-.803137959e-1,.7250857225,-.2824969384
-.831565591e-1,.7514685821,-.2203718724
-.873474465e-1,.7762127747,-.1616167582
-.926938033e-1,.7995524744,-.1055602669
-.1766832654+.9166337691e-1*I,.4578052380+.1114184420*I,-1.047197551+.3316185158*I
-.1913227067+.4058118038e-1*I,.4698490307+.4932713636e-1*I,-1.047197551+.1489681700*I
-.1365474220,.5662676388,-.7885681182
-.1157515301,.6213837000,-.6505635079
-.1053235197,.6638974178,-.5480515369
-.999689025e-1,.7002443388,-.4620249936
-.978517045e-1,.7326561203,-.3859747314
-.980709810e-1,.7622278749,-.3167367577
-.1001041897,.7895947637,-.2524881118
-.1036161290,.8151642296,-.1920634039
.2374966e-2,.4532393423,.4375249555e-2
-.5778130e-2,.4731674009,.5478174321e-1
-.14685049e-1,.4921791736,.1039317485
-.24294523e-1,.5103369792,.1520257919
-.34565339e-1,.5276909121,.1992341132
-.45464285e-1,.5442813412,.2457040345
-.56964675e-1,.5601407048,.2915653899
-.69045271e-1,.5752948176,.3369346427
-.81689496e-1,.5897638301,.3819181113
-.94884860e-1,.6035629227,.4266145482
.11583074e-1,.4733689257,-.4407456473e-1
.4192123e-2,.4942233836,.7722935850e-2
-.4012202e-2,.5140891724,.5804017523e-1
-.12966629e-1,.5330431982,.1071151841
-.22620627e-1,.5511468836,.1551462264
-.32933563e-1,.5684496190,.2023018415
-.43872694e-1,.5849912031,.2487280522
-.55411719e-1,.6008036049,.2945537024
-.67529728e-1,.6159122424,.3398945025
-.80210426e-1,.6303369204,.3848561969
.18703183e-1,.4924627054,-.9649207734e-1
.12185882e-1,.5143791014,-.4296300567e-1
.4776985e-2,.5352117468,.8800420454e-2
-.3443791e-2,.5550575386,.5908911453e-1
-.12413482e-1,.5739930110,.1081401364
-.22081791e-1,.5920793013,.1561510315
-.32408271e-1,.6093655732,.2032897928
-.43360328e-1,.6258914460,.2497020361
-.54911785e-1,.6416887374,.2955162872
-.67041835e-1,.6567827377,.3408480134
.23420121e-1,.5102424529,-.1536556406
.17924892e-1,.5334011960,-.9793266969e-1
.11432408e-1,.5553477567,-.4435240268e-1
.4045945e-2,.5762076716,.7453632611e-2
-.41542653e-2,.5960784619,.5777802090e-1
-.131048754e-1,.6150371275,.1068590370
-.227552950e-1,.6331451627,.1548951254
-.330648448e-1,.6504520136,.2020549600
-.440007442e-1,.6669975257,.2484846703
-.555366620e-1,.6828137047,.2943131773
.253106027e-1,.5263205350,-.2166590675
.210435215e-1,.5509721116,-.1580876182
.156309596e-1,.5742313375,-.1021798672
.92119061e-2,.5962671546,-.4844748900e-1
.18917736e-2,.6172076950,.3485090157e-2
-.62476708e-2,.6371523470,.5391546049e-1
-.151419360e-1,.6561795012,.1030855279
-.247395555e-1,.6743517156,.1511964246
-.349991611e-1,.6917192752,.1984188509
-.458874159e-1,.7083226997,.2449004741
.237792097e-1,.5401283511,-.2871167400
.210426925e-1,.5666403566,-.2247169899
.169415604e-1,.5914936472,-.1657445440
.116730708e-1,.6149279957,-.1095122606
.53817419e-2,.6371190651,-.5551308888e-1
-.18232048e-2,.6581996148,-.3358768441e-2
-.98572726e-2,.6782723542,.4725721410e-1
-.186539445e-1,.6974181342,.9658321113e-1
-.281602075e-1,.7157013948,.1448251252
-.383334788e-1,.7331738947,.1921572383
.179316227e-1,.5507711124,-.3675817357
.172048412e-1,.5797259861,-.2997691626
.147639699e-1,.6065973529,-.2365985801
.109115666e-1,.6317529779,-.1770184007
.58581725e-2,.6554487781,-.1202958045
-.2430670e-3,.6778709042,-.6589445182e-1
-.72770322e-2,.6991592859,-.1340636926e-1
-.151550224e-1,.7194217397,.3748873084e-1
-.238074203e-1,.7387428886,.8704912864e-1
-.331788534e-1,.7571900368,.1354880327
.62832957e-2,.5566866457,-.4625344266
.84176112e-2,.5891192332,-.3864329071
.82112353e-2,.6187066700,-.3171584205
.61883268e-2,.6460860781,-.2528823165
.26849519e-2,.6716659537,-.1924361817
-.20683367e-2,.6957265385,-.1350181868
-.79055717e-2,.7184695656,-.8004833494e-1
-.147029632e-1,.7400455068,-.2708955605e-1
-.223656860e-1,.7605696228,.2419861091e-1
-.308196372e-1,.7801319859,.7408887695e-1
-.140920571e-1,.5546299318,-.5813500906
-.72612964e-2,.5927711305,-.4906166776
-.41486154e-2,.6263929385,-.4115568321
-.36272321e-2,.6568649773,-.3402016072
-.50741370e-2,.6849445296,-.2743732568
-.81015854e-2,.7111029026,-.2127226464
-.124489536e-1,.7356568894,-.1543438875
-.179313790e-1,.7588311949,-.9859236755e-1
-.244124842e-1,.7807915875,-.4498858928e-1
-.317886625e-1,.8016640029,.6837010360e-2
-.516296574e-1,.5347601929,-.7528271542
-.340544555e-1,.5859614488,-.6260248379
-.249938766e-1,.6268130304,-.5280355312
-.204608882e-1,.6621612470,-.4445898186
-.189168282e-1,.6938763686,-.3702452829
-.195713440e-1,.7229190831,-.3022310598
-.219538753e-1,.7498613634,-.2389072591
-.257573766e-1,.7750764309,-.1792066627
-.307686013e-1,.7988234885,-.1223871397
-.368326584e-1,.8212908106,-.6790641207e-1
.47402889e-1,.4517876822,.8743841230e-1
.38025930e-1,.4702281129,.1358691568
.27974676e-1,.4878489274,.1833594965
.17284855e-1,.5046935519,.2300638128
.5985222e-2,.5207969394,.2761173375
-.5901242e-2,.5361870224,.3216406577
-.18356460e-1,.5508857768,.3667432042
-.31366611e-1,.5649099996,.4115260300
-.44921679e-1,.5782718663,.4560840911
-.59015130e-1,.5909793178,.5005081950
.58843862e-1,.4733864423,.4301821762e-1
.50109636e-1,.4926081263,.9244510315e-1
.40661764e-1,.5109623620,.1407717998
.30543619e-1,.5285018686,.1881749342
.19790148e-1,.5452691257,.2348066866
.8429466e-2,.5612983071,.2808005992
-.3515984e-2,.5766166928,.3262759725
-.16028585e-1,.5912456966,.3713412619
-.29094926e-1,.6052016199,.4160967972
-.42705359e-1,.6184961892,.4606370242
.68491946e-1,.4942306774,-.4620066088e-2
.60477380e-1,.5143271225,.4603052058e-1
.51698754e-1,.5334948373,.9538558348e-1
.42209370e-1,.5517986141,.1436519214
.32052038e-1,.5692904889,.1910044917
.21261254e-1,.5860123911,.2375942009
.9864762e-2,.6019980445,.2835536229
-.2115308e-2,.6172743494,.3290013163
-.14661606e-1,.6318623926,.3740451742
-.27760961e-1,.6457781869,.4187851140
.76119948e-1,.5141335533,-.5599575996e-1
.68922905e-1,.5352237099,-.3826132240e-2
.60896061e-1,.5553052291,.4680265685e-1
.52106073e-1,.5744591351,.9613941443e-1
.42606063e-1,.5927499954,.1443903672
.32438697e-1,.6102296733,.1917300515
.21638355e-1,.6269399580,.2383090505
.10232688e-1,.6429144587,.2842596924
-.17562545e-2,.6581799789,.3297003465
-.143111918e-1,.6727575221,.3747387649
.814363908e-1,.5328480685,-.1118041671
.751852368e-1,.5550879709,-.5772050295e-1
.680164709e-1,.5762124996,-.5496012077e-2
.600154644e-1,.5963254261,.4517867939e-1
.512493812e-1,.6155083872,.9455398768e-1
.417717269e-1,.6338264222,.1428373401
.316254705e-1,.6513317587,.1902041612
.208452337e-1,.6680664813,.2368057175
.94588657e-2,.6840644411,.2827748554
-.25114148e-2,.6993526446,.3282303405
.840557223e-1,.5500355618,-.1730067196
.789253774e-1,.5736378248,-.1164603280
.727562154e-1,.5959773907,-.6220337730e-1
.656612171e-1,.6171915849,-.9835060444e-2
.577275611e-1,.6373863763,.4095991978e-1
.490237451e-1,.6566450244,.9043624954e-1
.396042906e-1,.6750338018,.1388044994
.295129589e-1,.6926059010,.1862424564
.187850085e-1,.7094041786,.2329031751
.74488101e-2,.7254631200,.2789208719
.834469739e-1,.5652097926,-.2409913113
.796877797e-1,.5904787157,-.1811813563
.747147279e-1,.6142721742,-.1242738662
.686843052e-1,.6367803789,-.6972114158e-1
.617139011e-1,.6581460200,-.1710760203e-1
.538938259e-1,.6784788711,.3389233295e-1
.452948798e-1,.6978649906,.8354073513e-1
.359733305e-1,.7163727737,.1320536086
.259743004e-1,.7340570666,.1796128073
.153341349e-1,.7509620481,.2263744725
.788370251e-1,.5776286543,-.3178836948
.768318526e-1,.6050296213,-.2535602815
.733432203e-1,.6306274185,-.1930772362
.686025636e-1,.6547033558,-.1356296920
.627764093e-1,.6774598525,-.8063572939e-1
.559889243e-1,.6990478355,-.2765701800e-1
.483351986e-1,.7195828869,.2364777717e-1
.398895274e-1,.7391553151,.7355199378e-1
.307108156e-1,.7578367195,.1222798852
.208462312e-1,.7756844333,.1700194701
.690041549e-1,.5860567835,-.4072332792
.693973692e-1,.6163730328,-.3362474349
.678497470e-1,.6443301601,-.2706928182
.647395088e-1,.6703879008,-.2092536351
.603218047e-1,.6948563939,-.1510429708
.547780892e-1,.7179561996,-.9542789043e-1
.482424857e-1,.7398503486,-.4193650698e-1
.408170373e-1,.7606628749,.9795544881e-2
.325810829e-1,.7804902176,.6005795313e-1
.235973061e-1,.7994085691,.1090868874
.517442607e-1,.5881373822,-.5158404067
.557985735e-1,.6229037600,-.4338840380
.570024725e-1,.6542054096,-.3605418074
.560866248e-1,.6829304707,-.2932546651
.534926662e-1,.7096157572,-.2304844073
.495116589e-1,.7346150628,-.1712194444
.443471777e-1,.7581758354,-.1147509300
.381478560e-1,.7804787399,-.6055785538e-1
.310257342e-1,.8016599660,-.8242538230e-2
.230673234e-1,.8218246678,.4250812176e-1
.89663416e-1,.4480101388,.1659411810
.79205453e-1,.4651365906,.2129187861
.68127799e-1,.4815097969,.2591976354
.56455447e-1,.4971601382,.3049032650
.44208200e-1,.5121116837,.3501488667
.31401385e-1,.5263830648,.3950382938
.18046378e-1,.5399881091,.4396685117
.4150968e-2,.5529362839,.4841316466
-.10280401e-1,.5652329913,.5285167881
-.25246495e-1,.5768797315,.5729116283
.103043354,.4707783194,.1247539424
.93144644e-1,.4885845535,.1724473189
.82599773e-1,.5056053663,.2193208465
.71438988e-1,.5218775263,.2655137450
.59686518e-1,.5374304821,.3111496444
.47361511e-1,.5522875100,.3563402898
.34478726e-1,.5664665486,.4011884543
.21049026e-1,.5799808018,.4457903196
.7079728e-2,.5928391647,.4902374948
-.7425170e-2,.6050464958,.5346187825
.114847745,.4929898751,.8086611003e-1
.105564323,.5115440043,.1294359163
.95601207e-1,.5292719493,.1770428595
.84995169e-1,.5462184142,.2238443158
.73775823e-1,.5624193914,.2699777894
.61966865e-1,.5779036859,.3155656114
.49586991e-1,.5926940215,.3607185337
.36650560e-1,.6068078526,.4055385904
.23168078e-1,.6202579480,.4501214351
.9146530e-2,.6330527998,.4945583281
.124904120,.5145116010,.3391167197e-1
.116304885,.5338973706,.8355959883e-1
.106983068,.5524048273,.1320720726
.96983784e-1,.5700888126,.1796309358
.86343378e-1,.5869935019,.2263923220
.75091108e-1,.6031544595,.2724927972
.63250375e-1,.6186001304,.3180539699
.50839621e-1,.6333529311,.3631860462
.37872984e-1,.6474300448,.4079906514
.24360766e-1,.6608439971,.4525631507
.1329979978,.5351741167,-.1658378899e-1
.1251697128,.5554969872,.3440124104e-1
.1165631918,.5748738997,.8403713418e-1
.1072345758,.5933730925,.1325394924
.972288878e-1,.6110492922,.1800898742
.865823928e-1,.6279465807,.2268441945
.753242878e-1,.6441004467,.2729388530
.634779236e-1,.6595392721,.3184953324
.510616953e-1,.6742854185,.3636237416
.380897013e-1,.6883560216,.4084256356
.1388567809,.5547558768,-.7124906275e-1
.1319118374,.5761524659,-.1858505954e-1
.1241149450,.5965134964,.3245702970e-1
.1155373824,.6159256078,.8214081363e-1
.1062357788,.6344576351,.1306834263
.962555381e-1,.6521647666,.1782675652
.856332298e-1,.6690914542,.2250500130
.743982985e-1,.6852734877,.2711678299
.625743013e-1,.7007395013,.3167430031
.501798129e-1,.7155120728,.3618860249
.1421243143,.5729571495,-.1309421003
.1362134556,.5956106865,-.7613193082e-1
.1293501956,.6171065618,-.2330523454e-1
.1216276165,.6375579217,.2787270769e-1
.1131185497,.6570532909,.7767049904e-1
.1038807963,.6756629297,.1263089386
.939606703e-1,.6934431319,.1739734617
.833954660e-1,.7104392304,.2208229242
.722152191e-1,.7266877336,.2669959697
.604439805e-1,.7422178762,.3126157954
.1423183269,.5893550553,-.1968792364
.1376528433,.6135223687,-.1392553525
.1318925811,.6363589576,-.8411761883e-1
.1251639675,.6580184992,-.3102009383e-1
.1175636782,.6786185033,.2038379932e-1
.1091671630,.6982506816,.7037113138e-1
.1000341949,.7169876877,.1191688818
.902126117e-1,.7348876712,.1669671041
.797409197e-1,.7519974355,.2139281386
.686501394e-1,.7683546869,.2601932921
.1387534269,.6033196789,-.2708765942
.1356473098,.6293824286,-.2094269062
.1312331096,.6538551811,-.1512078829
.1256924494,.6769587002,-.9558601555e-1
.1191595639,.6988561531,-.4208903892e-1
.1117365735,.7196716678,.9647670349e-2
.1035028737,.7395017507,.5991397957e-1
.945211893e-1,.7584226454,.1089461919
.848416332e-1,.7764952647,.1569412868
.745045079e-1,.7937685969,.2040668357
.1303860833,.6138399016,-.3558526597
.1293458340,.6424137494,-.2889095320
.1266507896,.6689761655,-.2264022241
.1225846403,.6938719785,-.1673447847
.1173464646,.7173431737,-.1110438184
.1110819689,.7395668593,-.5698824336e-1
.1039011905,.7606767864,-.4787077333e-2
.958892092e-1,.7807763727,.4586810046e-1
.871129734e-1,.7999469936,.9522702001e-1
.776258256e-1,.8182534881,.1434965980
.129472762,.4422482644,.2408401718
.118034634,.4581833085,.2867599366
.106014294,.4734106642,.3321758610
.93428780e-1,.4879510413,.3771951981
.80290991e-1,.5018201175,.4219173922
.66610108e-1,.5150290536,.4664362683
.52391886e-1,.5275848449,.5108419244
.37638828e-1,.5394905335,.5552224174
.22350260e-1,.5507453009,.5996653569
.6522312e-2,.5613444425,.6442594700
.144572841,.4659692380,.2023148113
.133633540,.4825106161,.2487408392
.122094352,.4983228200,.2945663407
.109976185,.5134312649,.3399070204
.97295332e-1,.5278557555,.3848686241
.84064029e-1,.5416111640,.4295494861
.70290854e-1,.5547079179,.4740426688
.55980996e-1,.5671523240,.5184378032
.41136412e-1,.5789467605,.5628227595
.25755884e-1,.5900897486,.6072852271
.158264592,.4892799422,.1614624767
.147866671,.5064793774,.2085131258
.136846398,.5229223305,.2548523905
.125229301,.5386398348,.3006071585
.113035639,.5536565141,.3458916480
.100281137,.5679914829,.3908104823
.86977527e-1,.5816590006,.4354611836
.73132923e-1,.5946689320,.4799362561
.58752080e-1,.6070270544,.5243250045
.43836531e-1,.6187352328,.5687151855
.170412208,.5120809051,.1180153021
.160606596,.5300003017,.1658354170
.150150049,.5471284743,.2128147336
.139073748,.5635033261,.2590949982
.127402700,.5791552522,.3048017777
.115156718,.5941083351,.3500482875
.102351138,.6083812180,.3949384005
.88997345e-1,.6219877376,.4395690921
.75103135e-1,.6349373713,.4840324998
.60672960e-1,.6472355302,.5284177181
.1808505818,.5342495409,.7163369272e-1
.1716994418,.5529644591,.1204036340
.1618607798,.5708436818,.1681785113
.1513728888,.5879337562,.2151200572
.1402666178,.6042721785,.2613691076
.1285666948,.6198890067,.3070505375
.1162926968,.6348080362,.3522770360
.1034597548,.6490476590,.3971520793
.900790658e-1,.6626214871,.4417723592
.761582588e-1,.6755387909,.4862298213
.1893756512,.5556311921,.2188034043e-1
.1809565792,.5752359507,.7182946506e-1
.1718026222,.5939474463,.1205951045
.1619613132,.6118234515,.1683663703
.1514709112,.6289104737,.2153049011
.1403622389,.6452459770,.2615514608
.1286600023,.6608599927,.3072308700
.1163837586,.6757762926,.3524557740
.1035486223,.6900132489,.3973296190
.901657774e-1,.7035844559,.4419490739
.1957300570,.5760254232,-.3181948576e-1
.1881424988,.5966409019,.1960810005e-1
.1797576891,.6162873080,.6961529980e-1
.1706356087,.6350375491,.1184297505
.1608242573,.6529499691,.1662419905
.1503622677,.6700715266,.2132147304
.1392807641,.6864400541,.2594895586
.1276047042,.7020858880,.3051919213
.1153538594,.7170330610,.3504349420
.1025435315,.7313001722,.3953224242
.1995809250,.5951640901,-.9024135337e-1
.1929564721,.6169502403,-.3693209641e-1
.1854506050,.6376650173,.1464827943e-1
.1771408527,.6574026571,.6478357502e-1
.1680885461,.6762377091,.1137056851
.1583427251,.6942297828,.1616083157
.1479428466,.7114268374,.2086565666
.1369207023,.7278675174,.2549938489
.1253018049,.7435828330,.3007470021
.1131063968,.7585973904,.3460302118
.2004835737,.6126743189,-.1544685800
.1950034690,.6358514459,-.9871188113e-1
.1885244264,.6578143456,-.4510383881e-1
.1811501120,.6786890264,.6725308394e-2
.1729610352,.6985733498,.5706905718e-1
.1640207525,.7175445683,.1061663414
.1543800134,.7356643707,.1542160957
.1440796233,.7529823549,.2013873609
.1331524640,.7695384906,.2478265489
.1216249503,.7853648854,.2936627954
.1978180032,.6280114527,-.2260857519
.1937452768,.6528992725,-.1670443012
.1885014036,.6763635421,-.1107562549
.1822318657,.6985810989,-.5671128771e-1
.1750465463,.7196855067,-.4518930903e-2
.1670304164,.7397800493,.4612887514e-1
.1582503420,.7589460049,.9548160486e-1
.1487596043,.7772481357,.1437459803
.1386009942,.7947384566,.1910969076
.1278089924,.8114588791,.2376852518
.167066667,.4347518064,.3128539090
.154720475,.4495830833,.3580298857
.141816981,.4637369489,.4028670979
.128366908,.4772264390,.4474615223
.114377447,.4900602928,.4919046313
.99852472e-1,.5022432208,.5362851537
.84792663e-1,.5137760482,.5806907000
.69195521e-1,.5246557386,.6252093262
.53055298e-1,.5348753033,.6699311240
.36362816e-1,.5444235882,.7149499124
.183718117,.4592628572,.2765642491
.171826018,.4746460919,.3220829466
.159365322,.4893381863,.3671818943
.146349807,.5033558894,.4119620743
.132789456,.5167113341,.4565183939
.118690768,.5294124212,.5009416283
.104056962,.5414630631,.5453201510
.88888072e-1,.5528633006,.5897415364
.73180946e-1,.5636093037,.6342941244
.56929156e-1,.5736932574,.6790686233
.199094139,.4834762680,.2382261641
.187689536,.4994520614,.2841778219
.175701622,.5147188318,.3296192907
.163147687,.5292975923,.3746583380
.150040849,.5432042901,.4193947881
.136390491,.5564503304,.4639227312
.122202557,.5690429371,.5083324283
.107479730,.5809853725,.5527120104
.92221517e-1,.5922770357,.5971490697
.76424229e-1,.6029134449,.6417322282
.213084847,.5073148592,.1976385221
.202206830,.5239307283,.2441313797
.190726555,.5398145419,.2900114877
.178665431,.5549923234,.3353957094
.166040183,.5694844029,.3803906610
.152863433,.5833061210,.4250953163
.139144109,.5964683321,.4696031767
.124887731,.6089777440,.5140041395
.110096574,.6208371229,.5583861798
.94769738e-1,.6320453744,.6028369326
.2255589268,.5306860345,.1545500322
.2152540318,.5479985426,.2017156719
.2043225738,.5645494533,.2481501958
.1927909268,.5803708236,.2939826326
.1806800648,.5954881474,.3393288366
.1680063338,.6099212950,.3842946605
.1547820198,.6236851994,.4289785217
.1410157468,.6367903419,.4734735360
.1267127438,.6492430812,.5178693692
.1118750098,.6610458448,.5622539031
.2363574202,.5534763928,.1086434273
.2266820872,.5715541462,.1566444525
.2163489592,.5888323382,.2037749607
.2053905582,.6053504983,.2501803629
.1938329982,.6211403715,.2959890327
.1816970352,.6362271851,.3413163195
.1689988272,.6506305801,.3862677005
.1557504912,.6643652842,.4309413164
.1419604952,.6774415915,.4754300949
.1276339249,.6898656841,.5198235877
.2452848706,.5755438603,.5951238128e-1
.2363090246,.5944718512,.1085537457
.2266349436,.6125511250,.1565565273
.2163030006,.6298307567,.2036885051
.2053457295,.6463502913,.2500951263
.1937892572,.6621414859,.2959047890
.1816543477,.6772295802,.3412328665
.1689571674,.6916342241,.3861848497
.1557098394,.7053701542,.4308588930
.1419208393,.7184476723,.4753479298
.2520963554,.5967057672,.6626638095e-2
.2439087877,.6165919243,.5697301173e-1
.2349699044,.6355648445,.1060725034
.2253304770,.6536862413,.1541241111
.2150313281,.6710057341,.2012969267
.2041053528,.6875633096,.2477374013
.1925789780,.7033910880,.2935746967
.1804732212,.7185146179,.3389247704
.1678044687,.7329538165,.3838935531
.1545850400,.7467236586,.4285795188
.2564776711,.6167200726,-.5072275627e-1
.2491945276,.6377055739,.1280755698e-2
.2410889428,.6576913822,.5177051404e-1
.2322260521,.6767566731,.1009904785
.2226578155,.6949646035,.1491432968
.2124259892,.7123659283,.1964008089
.2015642212,.7290015482,.2429115542
.1900995589,.7449043397,.2888062953
.1780535452,.7601004883,.3342022073
.1654430210,.7746104645,.3792061409
.2580136457,.6352542315,-.1135140050
.2517925423,.6575306608,-.5936696267e-1
.2446508239,.6786880672,-.7089852638e-2
.2366745216,.6988310206,.4362885056e-1
.2279312845,.7180417525,.9304112608e-1
.2184749900,.7363857505,.1413555432
.2083488964,.7539155952,.1887483897
.1975878582,.7706736540,.2353715853
.1862199150,.7866940095,.2813584767
.1742674465,.8020038637,.3268282103
.202625061,.4257078454,.3825442387
.189422068,.4394976654,.4272373370
.175676843,.4526283934,.4717380283
.161394747,.4651065442,.5161360793
.146577900,.4769346973,.5605194128
.131225252,.4881115732,.6049756873
.115332544,.4986319975,.6495938706
.98892185e-1,.5084867419,.6944658687
.81893013e-1,.5176622399,.7396883149
.64319940e-1,.5261401504,.7853646071
.220694241,.4508829891,.3481619432
.207911833,.4651840386,.3930649911
.194580810,.4788182354,.4377046682
.180709112,.4917952326,.4821732765
.166301328,.5041206076,.5265600050
.151358831,.5157960304,.5709525727
.135879823,.5268193145,.6154388045
.119859279,.5371843517,.6601082065
.103288794,.5468809256,.7050536281
.86156320e-1,.5558943932,.7503730965
.237596314,.4758501253,.3119437183
.225261435,.4906951532,.3571275124
.212369000,.5048624614,.4019705566
.198929807,.5183651764,.4465689399
.184951114,.5312121200,.4910142054
.170436862,.5434080819,.5353951212
.155387794,.5549539642,.5797993038
.139801474,.5658468088,.6243147866
.123672221,.5760797079,.6690316028
.106990928,.5856415941,.7140434804
.253240463,.5005473258,.2737360486
.241384035,.5159739198,.3192841644
.228958025,.5307081757,.3644060427
.215976459,.5447671441,.4092031129
.202449543,.5581632303,.4537705973
.188383986,.5709045883,.4981994754
.173783205,.5829953723,.5425782220
.158647429,.5944358610,.5869944155
.142973707,.6052224656,.6315363013
.126755815,.6153476229,.6762943947
.2675196398,.5249020688,.2333487486
.2561777078,.5409540410,.2793608599
.2442503788,.5562944531,.3248508587
.2317554108,.5709448899,.3699274936
.2187063408,.5849218051,.4146913162
.2051129278,.5982370629,.4592369269
.1909814678,.6108983152,.5036549078
.1763149838,.6229092356,.5480335381
.1611133138,.6342696287,.5924603926
.1453731108,.6449754262,.6370239109
.2803063272,.5488278187,.1905447697
.2695216012,.5655570846,.2371412802
.2581309242,.5815498064,.2831062792
.2461564772,.5968329452,.3285584434
.2336156522,.6114276425,.3736057611
.2205216612,.6253499564,.4183482125
.2068839712,.6386113942,.4628800007
.1927086032,.6512192752,.5072914572
.1779983162,.6631769525,.5516707428
.1627526902,.6744839162,.5961054466
.2914467276,.5722192081,.1450258656
.2812707306,.5896883946,.1923544863
.2704621666,.6063886853,.2389242919
.2590486046,.6223535905,.2848673978
.2470520286,.6376098310,.3303020130
.2344896576,.6521783382,.3753357665
.2213745526,.6660749877,.4200683809
.2077160427,.6793111189,.4645938745
.1935200208,.6918938949,.5090024654
.1787891226,.7038265193,.5533822632
.3007525481,.5949450384,.9641178921e-1
.2912487001,.6132312342,.1446571936
.2810777098,.6307065062,.1919922290
.2702739156,.6474125944,.2385673657
.2588649333,.6633830661,.2845148415
.2468727855,.6786446896,.3299529575
.2343147273,.6932184388,.3749894149
.2212038486,.7071202255,.4197239875
.2075495068,.7203614230,.4642507312
.1933576198,.7329492252,.5086598853
.3079890847,.6168378028,.4420927186e-1
.2992372877,.6360381297,.9360768358e-1
.2897729912,.6543724007,.1419104489
.2796393443,.6718930648,.1892935353
.2688711147,.6886423824,.2359086138
.2574962707,.7046543495,.2818888442
.2455371312,.7199560951,.3273532310
.2330112069,.7345689039,.3724100070
.2199318146,.7485089628,.4171593379
.2063085165,.7617878947,.4616955544
.3128572681,.6376773685,-.1223610899e-1
.3049610138,.6579176223,.3862607252e-1
.2962917503,.6772182700,.8815883034e-1
.2869045693,.6956462765,.1365745049
.2768436773,.7132553753,.1840522098
.2661446884,.7300888562,.2307460092
.2548362652,.7461815588,.2767908870
.2429413097,.7615613215,.3223072449
.2304778349,.7762500389,.3674043714
.2174596004,.7902644358,.4121832127
