-.698569165e-1,.6537350183,-.2643814067
-.716412574e-1,.6694690928,-.2273125195
-.739188904e-1,.6846035640,-.1914845523
-.766441760e-1,.6991939055,-.1567387111
-.797795533e-1,.7132857728,-.1229439112
-.832937046e-1,.7269172341,-.8999031734e-1
-.871602291e-1,.7401203793,-.5778469249e-1
-.913566631e-1,.7529225144,-.2624695547e-1
-.958637418e-1,.7653470546,.4692392470e-2
-.948094863e-1,.5107339846,-.6664702750
-.871399735e-1,.5379593852,-.6002478892
-.819068471e-1,.5622233174,-.5421361671
-.783949823e-1,.5843950224,-.4895830664
-.761931645e-1,.6049743448,-.4411308400
-.750387956e-1,.6242804746,-.3958540279
-.747519083e-1,.6425321638,-.3531215262
-.752027174e-1,.6598871716,-.3124800255
-.762939538e-1,.6764637278,-.2735908050
-.779504925e-1,.6923531502,-.2361927159
-.801128966e-1,.7076276846,-.2000792526
-.827332088e-1,.7223456216,-.1650836351
-.857720995e-1,.7365547708,-.1310687199
-.891968729e-1,.7502948718,-.9792000508e-1
-.929800358e-1,.7635993450,-.6554057222e-1
-.970982438e-1,.7764965650,-.3384741473e-1
-.1186406453,.4953255471,-.7731273983
-.1053834033,.5293429319,-.6876393067
-.967963002e-1,.5576836797,-.6183063719
-.909559308e-1,.5826857243,-.5581963962
-.870003237e-1,.6053968077,-.5042268894
-.844534743e-1,.6263955223,-.4547073401
-.830191202e-1,.6460419781,-.4085919773
-.824978154e-1,.6645786061,-.3651804486
-.827476063e-1,.6821779548,-.3239764254
-.836631696e-1,.6989680462,-.2846128628
-.851638036e-1,.7150469718,-.2468091295
-.871860682e-1,.7304918477,-.2103448002
-.896790443e-1,.7453645650,-.1750428721
-.926011559e-1,.7597156612,-.1407585085
-.959179667e-1,.7735869930,-.1073712847
-.996006085e-1,.7870136506,-.7477965270e-1
-.1731495705,.4436197590,-.9882311150
-.1337457584,.5094187575,-.8084590232
-.1179510203,.5465205115,-.7140329238
-.1081030273,.5763938935,-.6403862576
-.1014648121,.6023657343,-.5776260779
-.969410141e-1,.6257674639,-.5218253988
-.939597351e-1,.6472942342,-.4709486068
-.921770111e-1,.6673641401,-.4237791651
-.913666033e-1,.6862521782,-.3795213225
-.913701767e-1,.7041508095,-.3376207295
-.920717434e-1,.7212010164,-.2976727855
-.933833136e-1,.7375097528,-.2593713259
-.952362694e-1,.7531604261,-.2224779072
-.975758954e-1,.7682195441,-.1868023892
-.1003577569,.7827411161,-.1521901233
-.1035452166,.7967696765,-.1185131757
-.1868641078+.7272783610e-1*I,.4425920535+.8840196014e-1*I,-1.047197551+.2648554247*I
-.1956477725+.3578548379e-1*I,.4498183291+.4349788308e-1*I,-1.047197551+.1314711326*I
-.1532093891,.5193059016,-.8573332788
-.1330679917,.5616910969,-.7474292443
-.1214056147,.5937698947,-.6675087139
-.1136928629,.6210478535,-.6011403522
-.1084306173,.6453471786,-.5429332120
-.1048972515,.6675450205,-.4903117695
-.1026786006,.6881448041,-.4418077002
-.1015105048,.7074676181,-.3964899646
-.1012120820,.7257333298,-.3537242029
-.1016529707,.7431003952,-.3130550770
-.1027355175,.7596875148,-.2741425084
-.1043843296,.7755863277,-.2367244228
-.1065397775,.7908693168,-.2005936384
-.1091537605,.8055949493,-.1655828765
-.1853322479+.1062454266*I,.4613095682+.1291431792*I,-1.047197551+.3820917747*I
-.1941159121+.8442691572e-1*I,.4685358434+.1026223966*I,-1.047197551+.3062576207*I
-.2028995766+.5542702845e-1*I,.4757621188+.6737252506e-1*I,-1.047197551+.2028251908*I
-.1820326905,.5190291588,-.9377327900
-.1517207968,.5737767706,-.7911155043
-.1372263242,.6092980300,-.7012803471
-.1280048842,.6384098256,-.6297825189
-.1217578494,.6639061798,-.5683250401
-.1175105213,.6869718550,-.5134177269
-.1147395873,.7082429472,-.4631998915
-.1131249563,.7281085338,-.4165404936
-.1124536865,.7468274474,-.3726911529
-.1125755227,.7645823268,-.3311261535
-.1133797130,.7815077930,-.2914593375
-.1147818327,.7977064662,-.2533970328
-.1167157888,.8132586822,-.2167095965
-.19178621e-1,.4660312141,-.8012167902e-1
-.23147685e-1,.4791097220,-.4812709276e-1
-.27440490e-1,.4917947149,-.1677824620e-1
-.32038627e-1,.5041085726,.1399156501e-1
-.36926174e-1,.5160706468,.4424094598e-1
-.42089293e-1,.5276977594,.7402183603e-1
-.47515904e-1,.5390045920,.1033806338
-.53195430e-1,.5500040016,.1323591103
-.59118591e-1,.5607072701,.1609951359
-.65277230e-1,.5711243094,.1893232854
-.71664183e-1,.5812638304,.2173753379
-.78273158e-1,.5911334794,.2451806898
-.85098646e-1,.6007399526,.2727667115
-.92135841e-1,.6100890921,.3001590500
-.99380576e-1,.6191859625,.3273818845
-.106829271,.6280349177,.3544581572
-.15438493e-1,.4763301045,-.1096243370
-.19096982e-1,.4897861223,-.7698129288e-1
-.23098402e-1,.5028252998,-.4505266418e-1
-.27421651e-1,.5154732884,-.1376288500e-1
-.32048582e-1,.5277521465,.1695388468e-1
-.36963493e-1,.5396809599,.4715554380e-1
-.42152728e-1,.5512763270,.7689344880e-1
-.47604366e-1,.5625527401,.1062135137
-.53307962e-1,.5735228919,.1351570976
-.59254353e-1,.5841979231,.1637617275
-.65435485e-1,.5945876224,.1920616863
-.71844282e-1,.6047005913,.2200885033
-.78474533e-1,.6145443788,.2478713637
-.85320800e-1,.6241255949,.2754374593
-.92378342e-1,.6334500025,.3028122818
-.99643051e-1,.6425225947,.3300198820
-.12432008e-1,.4862218523,-.1405880119
-.15750732e-1,.5000908592,-.1072050398
-.19435153e-1,.5135153543,-.7461718779e-1
-.23460845e-1,.5265250290,-.4273783126e-1
-.27806942e-1,.5391452448,-.1149219346e-1
-.32455492e-1,.5513978238,.1918493036e-1
-.37390956e-1,.5633016547,.4935091731e-1
-.42599815e-1,.5748731693,.7905668952e-1
-.48070263e-1,.5861267179,.1083477978
-.53791956e-1,.5970748724,.1372652999
-.59755818e-1,.6077286678,.1658464652
-.65953870e-1,.6180978001,.1941253582
-.72379104e-1,.6281907897,.2221333244
-.79025368e-1,.6380151132,.2498993912
-.85887277e-1,.6475773157,.2774506170
-.929601395e-1,.6568831010,.3048123787
-.10225573e-1,.4956453484,-.1731840916
-.13169617e-1,.5099697846,-.1389505861
-.16506686e-1,.5238164917,-.1056083486
-.20208176e-1,.5372202399,-.7305671901e-1
-.24249849e-1,.5502104888,-.4120971054e-1
-.28610995e-1,.5628124134,-.9993053560e-2
-.33273789e-1,.5750476791,.2065803604e-1
-.38222797e-1,.5869350460,.5080059518e-1
-.43444592e-1,.5984908373,.8048526277e-1
-.489274414e-1,.6097293110,.1097573542
-.546610698e-1,.6206629588,.1386577268
-.606364553e-1,.6313027468,.1672234836
-.668456703e-1,.6416583104,.1954885455
-.732817498e-1,.6517381166,.2234841376
-.799385811e-1,.6615495947,.2512391844
-.868108158e-1,.6710992472,.2787806572
-.88983734e-2,.5045261718,-.2076222103
-.114253324e-1,.5193575817,-.1724023809
-.143785813e-1,.5336708292,-.1381901849
-.177241558e-1,.5475071990,-.1048668005
-.214335600e-1,.5609013270,-.7233193972e-1
-.254826450e-1,.5738825665,-.4049990769e-1
-.298507716e-1,.5864760054,-.9296671908e-2
-.345201739e-1,.5987032386,.2134236220e-1
-.394754678e-1,.6105829665,.5147407390e-1
-.447032651e-1,.6221314601,.8114896625e-1
-.501918715e-1,.6333629366,.1104122508
-.559310400e-1,.6442898500,.1393046909
-.619117757e-1,.6549231347,.1678633123
-.681261740e-1,.6652723982,.1961219704
-.745672899e-1,.6753460826,.2241118342
-.812290293e-1,.6851515951,.2518617809
-.85463031e-2,.5127721307,-.2441630274
-.106037447e-1,.5281742487,-.2077871411
-.131286495e-1,.5430081562,-.1725623544
-.160800156e-1,.5573236923,-.1383458016
-.194238502e-1,.5711621762,-.1050185635
-.231316355e-1,.5845582728,-.7248027213e-1
-.271792039e-1,.5975413553,-.4064517799e-1
-.315459024e-1,.6101365302,-.9439197937e-2
-.362139528e-1,.6223654072,.2120230274e-1
-.411679603e-1,.6342466974,.5133623073e-1
-.463945295e-1,.6457966850,.8101312419e-1
-.518819580e-1,.6570295931,.1102782094
-.576199929e-1,.6679578848,.1391722723
-.635996337e-1,.6785925004,.1677323527
-.698129711e-1,.6889430528,.1959923198
-.762530564e-1,.6990179902,.2239833554
-.92876749e-2,.5202667272,-.2831370145
-.108093751e-1,.5363200471,-.2453883480
-.128505482e-1,.5517419403,-.2089715882
-.153606838e-1,.5665938000,-.1737111462
-.182985154e-1,.5809257876,-.1394632470
-.216298458e-1,.5947794711,-.1061082749
-.253259950e-1,.6081897093,-.7354532390e-1
-.293626676e-1,.6211860366,-.4168820177e-1
-.337191045e-1,.6337936849,-.1046248388e-1
-.383774409e-1,.6460343691,.2019674655e-1
-.433222103e-1,.6579268893,.5034663213e-1
-.485399557e-1,.6694876016,.8003789780e-1
-.540189234e-1,.6807307940,.1093159356
-.597488158e-1,.6916689829,.1382216644
-.657205936e-1,.7023131560,.1667922387
-.719263138e-1,.7126729674,.1950616247
-.112718539e-1,.5268591339,-.3249733513
-.121719868e-1,.5436679784,-.2855678958
-.136589571e-1,.5597635153,-.2477283958
-.156689620e-1,.5752232922,-.2112331869
-.181508159e-1,.5901095288,-.1759043341
-.210627411e-1,.6044730060,-.1415963131
-.243701457e-1,.6183557720,-.1081881639
-.280440389e-1,.6317930638,-.7557792909e-1
-.320598758e-1,.6448147172,-.4367858834e-1
-.363966951e-1,.6574462107,-.1241504592e-1
-.410364656e-1,.6697094623,.1827816023e-1
-.459635815e-1,.6816234397,.4845861739e-1
-.511644696e-1,.6932046428,.7817742410e-1
-.566272760e-1,.7044674795,.1074802788
-.623416177e-1,.7154245706,.1364083613
-.682983812e-1,.7260869938,.1649990449
-.146929365e-1,.5323481680,-.3702462978
-.148566615e-1,.5500521336,-.3287997104
-.156972736e-1,.5669333275,-.2892322817
-.171315819e-1,.5830928740,-.2512546517
-.190943711e-1,.5986100426,-.2146402300
-.215334164e-1,.6135483143,-.1792074944
-.244061560e-1,.6279594230,-.1448082288
-.276773925e-1,.6418861513,-.1113194143
-.313176596e-1,.6553643165,-.7863748224e-1
-.353020317e-1,.6684242162,-.4667414076e-1
-.396092384e-1,.6810917040,-.1535327270e-1
-.442209946e-1,.6933890074,.1539141644e-1
-.491214832e-1,.7053353513,.4561819545e-1
-.542969523e-1,.7169474519,.7537872745e-1
-.597353967e-1,.7282399008,.1047191808
-.654263034e-1,.7392254773,.1336811312
-.198127306e-1,.5364551094,-.4197541734
-.190799957e-1,.5552487355,-.3757246419
-.191495347e-1,.5730671833,-.3340114687
-.199083064e-1,.5900478575,-.2942204285
-.212703242e-1,.6062952738,-.2560523860
-.231683875e-1,.6218911179,-.2192738320
-.255488165e-1,.6369006385,-.1836982123
-.283679541e-1,.6513769014,-.1491735473
-.315897595e-1,.6653637137,-.1155739443
-.351841049e-1,.6788976975,-.8279359619e-1
-.391255362e-1,.6920097928,-.5074244088e-1
-.433923549e-1,.7047263732,-.1934294342e-1
-.479659241e-1,.7170700937,.1147234239e-1
-.528301340e-1,.7290605343,.4176262803e-1
-.579709873e-1,.7407147109,.7158035967e-1
-.633762697e-1,.7520474690,.1009723569
-.270024592e-1,.5387739122,-.4746646580
-.251378648e-1,.5589433332,-.4272458512
-.242599327e-1,.5779134482,-.3827889808
-.242062708e-1,.5958816486,-.3407253163
-.248582801e-1,.6129920933,-.3006410426
-.261262015e-1,.6293538873,-.2622237910
-.279401695e-1,.6450519499,-.2252307792
-.302445594e-1,.6601538979,-.1894687102
-.329942551e-1,.6747145683,-.1547805914
-.361520969e-1,.6887791301,-.1210367069
-.396870802e-1,.7023852693,-.8812828524e-1
-.435730533e-1,.7155647746,-.5596292258e-1
-.477877531e-1,.7283447064,-.2446120909e-1
-.523120802e-1,.7407482818,.6445818378e-2
-.571295402e-1,.7527955475,.3681861408e-1
-.622258139e-1,.7645039117,.6671065172e-1
-.368266843e-1,.5386703901,-.5368105714
-.334571313e-1,.5606691143,-.4847089945
-.313670268e-1,.5811126471,-.4366002120
-.303039308e-1,.6003078324,-.3915950252
-.300938547e-1,.6184661571,-.3490835565
-.306107958e-1,.6357407803,-.3086258615
-.317600129e-1,.6522468601,-.2698920951
-.334681444e-1,.6680735702,-.2326272676
-.356770278e-1,.6832916066,-.1966292969
-.383396533e-1,.6979581129,-.1617346586
-.414174129e-1,.7121200155,-.1278086932
-.448781727e-1,.7258163753,-.9473879450e-1
-.486948837e-1,.7390800695,-.6242954931e-1
-.528445599e-1,.7519390391,-.3079913781e-1
-.573075097e-1,.7644172196,.2233457516e-3
-.620667489e-1,.7765352536,.3069994593e-1
-.502393129e-1,.5350454800,-.6093883588
-.447036356e-1,.5596771666,-.5502831919
-.409694667e-1,.5821190894,-.4970220733
-.385941704e-1,.6029092764,-.4480344322
-.372986645e-1,.6223869594,-.4023359086
-.368933819e-1,.6407825610,-.3592612831
-.372425119e-1,.6582611630,-.3183359534
-.382447821e-1,.6749458590,-.2792071338
-.398222877e-1,.6909313470,-.2416039603
-.419135916e-1,.7062923038,-.2053129807
-.444692539e-1,.7210888250,-.1701622939
-.474488186e-1,.7353700860,-.1360109056
-.508187156e-1,.7491768902,-.1027413402
-.545507607e-1,.7625434986,-.7025435069e-1
-.586210542e-1,.7754989584,-.3846508203e-1
-.630091604e-1,.7880681118,-.7300170338e-2
-.691643900e-1,.5256312626,-.6990482579
-.600492073e-1,.5546139012,-.6279138400
-.538695467e-1,.5800283605,-.5666800980
-.496702461e-1,.6030356578,-.5119275278
-.469360539e-1,.6242620902,-.4618244522
-.453508969e-1,.6440918494,-.4152542162
-.447040928e-1,.6627810254,-.3714764769
-.448467695e-1,.6805105722,-.3299704238
-.456690756e-1,.6974140189,-.2903530647
-.470872023e-1,.7135932354,-.2523328894
-.490354940e-1,.7291280256,-.2156817770
-.514614034e-1,.7440822642,-.1802170852
-.543221254e-1,.7585079801,-.1457897645
-.575822752e-1,.7724481848,-.1122761550
-.612122389e-1,.7859388730,-.7957219444e-1
-.651869737e-1,.7990104875,-.4758919074e-1
-.992774824e-1,.5036127827,-.8259968003
-.820477439e-1,.5424588060,-.7264810271
-.715543580e-1,.5731166740,-.6506109203
-.645240454e-1,.5995651156,-.5865389732
-.597272182e-1,.6232987174,-.5298518758
-.565401564e-1,.6450756209,-.4783272806
-.545940521e-1,.6653441181,-.4306596057
-.536490522e-1,.6843957565,-.3860045554
-.535386451e-1,.7024329313,-.3437787948
-.541415914e-1,.7196030128,-.3035591897
-.553663500e-1,.7360172715,-.2650271220
-.571418016e-1,.7517621526,-.2279354330
-.594114095e-1,.7669063775,-.1920876740
-.621293764e-1,.7815056154,-.1573244986
-.652580203e-1,.7956056673,-.1235144127
-.687659293e-1,.8092447160,-.9054726100e-1
-.1565679597+.4339519419e-1*I,.4496550690+.5274761950e-1*I,-1.047197551+.1592143629*I
-.1202181591,.5117418648,-.8801289643
-.976319329e-1,.5570987902,-.7614512320
-.851229430e-1,.5902066618,-.6785807074
-.769380002e-1,.6180585766,-.6106142801
-.713610053e-1,.6427404840,-.5513731100
-.675966646e-1,.6652190806,-.4980156526
-.651979197e-1,.6860377708,-.4489554475
-.638833930e-1,.7055385750,-.4031999331
-.634621902e-1,.7239535272,-.3600791749
-.637976713e-1,.7414487184,-.3191156374
-.647880158e-1,.7581479110,-.2799546011
-.663549393e-1,.7741462612,-.2423238829
-.684367327e-1,.7895187792,-.2060090779
-.709837541e-1,.8043258026,-.1708375973
-.739553953e-1,.8186166952,-.1366679162
.10863606e-1,.4671371402,-.2469379432e-1
.6341524e-2,.4795434435,.6217433055e-2
.1526194e-2,.4915932983,.3659400608e-1
-.3568050e-2,.5033041308,.6648944576e-1
-.8928705e-2,.5146911333,.9595146312e-1
-.14544836e-1,.5257676015,.1250229327
-.20406849e-1,.5365451966,.1537426546
-.26506315e-1,.5470341615,.1821459896
-.32835830e-1,.5572434987,.2102653865
-.39388890e-1,.5671811128,.2381308103
-.46159795e-1,.5768539333,.2657701195
-.53143566e-1,.5862680105,.2932093705
-.60335880e-1,.5954286007,.3204730944
-.67733010e-1,.6043402323,.3475845272
-.75331784e-1,.6130067640,.3745658180
-.83129539e-1,.6214314297,.4014382117
.15516838e-1,.4780938811,-.5240203037e-1
.11266551e-1,.4908305578,-.2097019837e-1
.6708607e-2,.5031932700,.9874110184e-2
.1859235e-2,.5152017461,.4019050165e-1
-.3267466e-2,.5268731250,.7003174462e-1
-.8659196e-2,.5382223573,.9944492800e-1
-.14305187e-1,.5492625295,.1284723986
-.20195994e-1,.5600051235,.1571525170
-.26323320e-1,.5704602252,.1855202703
-.32679872e-1,.5806366986,.2136077878
-.39259247e-1,.5905423267,.2414447667
-.46055835e-1,.6001839281,.2690588323
-.53064740e-1,.6095674550,.2964758469
-.60281712e-1,.6186980728,.3237201749
-.67703093e-1,.6275802274,.3508149110
-.75325773e-1,.6362177005,.3777820886
.19513524e-1,.4887200570,-.8136406732e-1
.15557297e-1,.5018141664,-.4934323321e-1
.11276566e-1,.5145138355,-.1797087905e-1
.6689845e-2,.5268415690,.1282003694e-1
.1813142e-2,.5388168266,.4308840671e-1
-.3339629e-2,.5504565164,.7288639429e-1
-.8756327e-2,.5617753987,.1022606010
-.14426321e-1,.5727863956,.1312529600
-.20340284e-1,.5835008437,.1599014768
-.26490019e-1,.5939287055,.1882408449
-.32868326e-1,.6040787350,.2163029418
-.39468883e-1,.6139586166,.2441172484
-.46286150e-1,.6235750823,.2717112089
-.53315297e-1,.6329340046,.2991105291
-.60552133e-1,.6420404771,.3263394422
-.67993056e-1,.6508988791,.3534209316
.22801013e-1,.4989694029,-.1117092953
.19164943e-1,.5124526692,-.7901839359e-1
.15184497e-1,.5255173412,-.4704704559e-1
.10880984e-1,.5381893188,-.1571900757e-1
.6272721e-2,.5504908687,.1503212011e-1
.1375552e-2,.5624412478,.4526469149e-1
-.3796749e-2,.5740571993,.7503044001e-1
-.9232157e-2,.5853533387,.1043755953
-.14920144e-1,.5963424645,.1333417808
-.20851468e-1,.6070358088,.1619667469
-.27018012e-1,.6174432408,.1902849663
-.33412640e-1,.6275734317,.2183281273
-.40029091e-1,.6374339941,.2461255533
-.46861879e-1,.6470315940,.2737045524
-.539062215e-1,.6563720452,.3010907150
-.611579732e-1,.6654603877,.3283081771
.25317742e-1,.5087867728,-.1435927481
.22032798e-1,.5226968400,-.1101345441
.18379790e-1,.5361595182,-.7747981535e-1
.14383497e-1,.5492049288,-.4554075394e-1
.10065074e-1,.5618587829,-.1424163167e-1
.5442708e-2,.5741431899,.1648352869e-1
.532136e-3,.5860772776,.4669273803e-1
-.4652957e-2,.5976776792,.7643744306e-1
-.101006242e-1,.6089589173,.1057636352
-.158004021e-1,.6199337112,.1347127403
-.217431069e-1,.6306132228,.1633223369
-.279206697e-1,.6410072610,.1916267557
-.343259995e-1,.6511244435,.2196575628
-.409528733e-1,.6609723361,.2474439803
-.477958418e-1,.6705575618,.2750132259
-.548501534e-1,.6798858958,.3023908164
.269908835e-1,.5181055505,-.1772025091
.240943344e-1,.5324877182,-.1428587272
.208011251e-1,.5463877384,-.1094189589
.171404319e-1,.5598410754,-.7678061603e-1
.131369489e-1,.5728777455,-.4485618129e-1
.88117580e-2,.5855233736,-.1357016048e-1
.41829901e-2,.5977999984,.1714323320e-1
-.7336670e-3,.6097266892,.4734185598e-1
-.59245695e-2,.6213200301,.7707702596e-1
-.113778046e-1,.6325945012,.1063946261
-.170829381e-1,.6435627849,.1353359902
-.230308125e-1,.6542360130,.1639386230
-.292133811e-1,.6646239659,.1922367883
-.356235735e-1,.6747352384,.2202619999
-.422551836e-1,.6845773735,.2480434300
-.491027784e-1,.6941569757,.2756082591
.277330790e-1,.5268440081,-.2127701406
.252705061e-1,.5417536817,-.1773945474
.223762342e-1,.5561386171,-.1430454656
.190851270e-1,.5700411921,-.1096010110
.154263882e-1,.5834969049,-.7695850217e-1
.114247341e-1,.5965357976,-.4503034976e-1
.71012645e-2,.6091835179,-.1374099794e-1
.24741248e-2,.6214621223,.1697538803e-1
-.24409844e-2,.6333906951,.4717670326e-1
-.76304091e-2,.6449858316,.7691429661e-1
-.130822278e-1,.6562620239,.1062340807
-.187859991e-1,.6672319638,.1351774134
-.247325585e-1,.6779067905,.1637818171
-.309138536e-1,.6882962915,.1920815720
-.373228088e-1,.6984090673,.2201082058
-.439532141e-1,.7082526673,.2478909044
.274377861e-1,.5349000553,-.2505857594
.254660177e-1,.5504063093,-.2139940431
.230188343e-1,.5653346894,-.1785810857
.201386480e-1,.5797367460,-.1441991886
.168605403e-1,.5936551223,-.1107257247
.132138865e-1,.6071255244,-.7805743468e-1
.92235397e-2,.6201781613,-.4610626911e-1
.49107111e-2,.6328388161,-.1479630439e-1
.2936374e-3,.6451296557,.1593859184e-1
-.46119045e-2,.6570698574,.4615656159e-1
-.97921966e-2,.6686760947,.7590915669e-1
-.152352631e-1,.6799629261,.1052424605
-.209306153e-1,.6909430989,.1341979692
-.268690485e-1,.7016278031,.1628133296
-.330424749e-1,.7120268687,.1911229221
-.394437875e-1,.7221489346,.2191583612
.259724235e-1,.5421433849,-.2910206363
.245639519e-1,.5583343374,-.2529750547
.226243078e-1,.5738796396,-.2163020347
.202062320e-1,.5888433999,-.1808182685
.173526752e-1,.6032778252,-.1463742043
.140991347e-1,.6172260627,-.1128458010
.104753115e-1,.6307242169,-.8012869183e-1
.65063204e-2,.6438028111,-.4813396163e-1
.22135830e-2,.6564878876,-.1678498039e-1
-.23844892e-2,.6688018235,.1398494961e-1
-.72719754e-2,.6807639723,.4423443803e-1
-.124350359e-1,.6923911556,.7401542369e-1
-.178615908e-1,.7036980561,.1033743081
-.235410635e-1,.7146975315,.1323528637
-.294641718e-1,.7254008628,.1609889591
-.356227612e-1,.7358179637,.1893171732
.231678264e-1,.5484032676,-.3345624358
.224177592e-1,.5653945210,-.2947475553
.210634219e-1,.5816512740,-.2565592268
.191722292e-1,.5972554701,-.2197632008
.167980178e-1,.6122725481,-.1841723821
.139845624e-1,.6267557175,-.1496343850
.107679939e-1,.6407488957,-.1160230075
.71785115e-2,.6542887898,-.8323220526e-1
.32416253e-2,.6674064099,-.5117172343e-1
-.10209203e-2,.6801281852,-.1976387511e-1
-.55904504e-2,.6924768145,.1105890416e-1
-.104508246e-1,.7044719182,.4135593257e-1
-.155880188e-1,.7161305419,.7117973512e-1
-.209897970e-1,.7274675600,.1005772043
-.266454472e-1,.7384959911,.1295905172
-.325455720e-1,.7492272600,.1582578942
.188011956e-1,.5534485584,-.3818731307
.188387724e-1,.5713972061,-.3398553416
.181728429e-1,.5884907319,-.2998093956
.168926662e-1,.6048376280,-.2614246899
.150677552e-1,.6205223905,-.2244596587
.127534785e-1,.6356123205,-.1887219024
.99947597e-2,.6501620223,-.1540550877
.68286113e-2,.6642164878,-.1203299968
.32859227e-2,.6778132617,-.8743825199e-1
-.6072454e-3,.6909840205,-.5528775918e-1
-.48287046e-2,.7037557369,-.2379934762e-1
-.93594152e-2,.7161515519,.7095739800e-2
-.141829344e-1,.7281914541,.3745780204e-1
-.192849834e-1,.7398927970,.6734017039e-1
-.246531112e-1,.7512707180,.9679041347e-1
-.302764210e-1,.7623384600,.1258512730
.125666397e-1,.5569528304,-.4338904308
.135756464e-1,.5760822691,-.3890457965
.137401126e-1,.5941851565,-.3466652218
.131838416e-1,.6114119709,-.3063165444
.120000987e-1,.6278760845,-.2676750812
.102612130e-1,.6436654131,-.2304894529
.80245996e-2,.6588497428,-.1945601731
.53367105e-2,.6734855402,-.1597256359
.22357286e-2,.6876192161,-.1258526336
-.12465434e-2,.7012894276,-.9282968726e-1
-.50833193e-2,.7145287325,-.6056226603e-1
-.92518248e-2,.7273648146,-.2896925549e-1
-.137325412e-1,.7398213986,.2019680125e-2
-.185086284e-1,.7519189553,.3246612590e-1
-.235654747e-1,.7636752431,.6242447563e-1
-.288903469e-1,.7751057415,.9194318153e-1
.40197298e-2,.5584281668,-.4920212899
.62780065e-2,.5790761159,-.4433950872
.74783889e-2,.5984381757,-.3979810126
.78039262e-2,.6167368456,-.3551370118
.73863442e-2,.6341322420,-.3144029219
.63242046e-2,.6507441662,-.2754354800
.46935318e-2,.6666650279,-.2379703987
.25544104e-2,.6819678621,-.2017989192
-.447210e-4,.6967115458,-.1667525989
-.30641668e-2,.7109443302,-.1326930481
-.64709473e-2,.7247063026,-.9950479402e-1
-.102373440e-1,.7380311548,-.6709016701e-1
-.143398321e-1,.7509474827,-.3536555234e-1
-.187582801e-1,.7634797550,-.4258598373e-2
-.234753415e-1,.7756490583,.2629392643e-1
-.284759811e-1,.7874736661,.5634777358e-1
-.75400252e-2,.5570838405,-.5585571616
-.35741894e-2,.5798073577,-.5045548576
-.10194463e-2,.6008156652,-.4550107815
.4212797e-3,.6204698666,-.4088762427
.9478979e-3,.6390129549,-.3654492428
.7026493e-3,.6566178236,-.3242324462
-.2089543e-3,.6734127268,-.2848581382
-.17060816e-2,.6894959161,-.2470452273
-.37251994e-2,.7049446169,-.2105729746
-.62153205e-2,.7198208046,-.1752641375
-.91348170e-2,.7341750791,-.1409737035
-.124492129e-1,.7480493470,-.1075811082
-.161296085e-1,.7614787347,-.7498470216e-1
-.201515322e-1,.7744929903,-.4309770639e-1
-.244940814e-1,.7871175186,-.1184522550e-1
-.291392742e-1,.7993741792,.1883804591e-1
-.233665243e-1,.5514668754,-.6377364680
-.168275012e-1,.5773181470,-.5753071965
-.123734231e-1,.6006351308,-.5197322140
-.94450020e-2,.6220976514,-.4690213221
-.77044150e-2,.6421163410,-.4219799796
-.69288231e-2,.6609620582,-.3778245626
-.69619476e-2,.6788247692,-.3360080000
-.76891291e-2,.6958438400,-.2961303776
-.90232801e-2,.7121251308,-.2578886868
-.108964203e-1,.7277512698,-.2210467145
-.132542996e-1,.7427881992,-.1854159325
-.160528329e-1,.7572895066,-.1508428863
-.192556509e-1,.7712993986,-.1172005616
-.228323677e-1,.7848548110,-.8438227847e-1
-.267573234e-1,.7979869316,-.5229728999e-1
-.310086542e-1,.8107223388,-.2086750270e-1
-.462851715e-1,.5382272222,-.7394191490
-.350827238e-1,.5697469678,-.6610955696
-.276342288e-1,.5967037180,-.5956183555
-.225507291e-1,.6207857748,-.5379962960
-.191496924e-1,.6428227676,-.4857949459
-.170348294e-1,.6632963944,-.4376101412
-.159514789e-1,.6825161994,-.3925447535
-.157243410e-1,.7006952632,-.3499842500
-.162265813e-1,.7179877562,-.3094857487
-.173629015e-1,.7345095116,-.2707174535
-.190595513e-1,.7503501786,-.2334230111
-.212580864e-1,.7655807936,-.1973993657
-.239112878e-1,.7802587550,-.1624822714
-.269803875e-1,.7944311832,-.1285365219
-.304331276e-1,.8081372910,-.9544908856e-1
-.342423605e-1,.8214100760,-.6312422385e-1
.39618478e-1,.4671008998,.2828558185e-1
.34599663e-1,.4789034166,.5830842837e-1
.29311162e-1,.4903781241,.8788524183e-1
.23764319e-1,.5015388130,.1170601481
.17969078e-1,.5123975687,.1458729951
.11934171e-1,.5229650071,.1743600382
.5667272e-2,.5332504553,.2025544780
-.824877e-3,.5432621077,.2304869253
-.7536364e-2,.5530071512,.2581857839
-.14462020e-1,.5624918689,.2856775770
-.21597346e-1,.5717217284,.3129872318
-.28938458e-1,.5807014524,.3401383184
-.36482032e-1,.5894350786,.3671532658
-.44225272e-1,.5979260090,.3940535505
-.52165868e-1,.6061770491,.4208598651
-.60301976e-1,.6141904413,.4475922753
.45090579e-1,.4786159442,.2103591299e-2
.40313706e-1,.4907125453,.3254863197e-1
.35256111e-1,.5024679227,.6250571701e-1
.29930522e-1,.5138975501,.9202328294e-1
.24348074e-1,.5250149597,.1211448008
.18518528e-1,.5358320189,.1499095797
.12450461e-1,.5463591497,.1783534092
.6151405e-2,.5566055115,.2065090997
-.372018e-3,.5665791494,.2344069291
-.7114007e-2,.5762871168,.2620750163
-.14069491e-1,.5857355778,.2895396466
-.21234062e-1,.5949298898,.3168255380
-.28603916e-1,.6038746760,.3439560894
-.36175809e-1,.6125738821,.3709535850
-.43947011e-1,.6210308229,.3978393786
-.51915282e-1,.6292482237,.4246340683
.49967592e-1,.4898595981,-.2517357865e-1
.45450142e-1,.5022715314,.5746321869e-2
.40639207e-1,.5143267293,.3613069522e-1
.35549154e-1,.5260426541,.6603315722e-1
.30192508e-1,.5374345306,.9550150298e-1
.24580230e-1,.5485156820,.1245786753
.18721932e-1,.5592977913,.1533035290
.12626058e-1,.5697911235,.1817114776
.6300028e-2,.5800046977,.2098350069
-.249639e-3,.5899464351,.2377041203
-.7017234e-2,.5996232793,.2653467048
-.13997766e-1,.6090412933,.2927888427
-.21186903e-1,.6182057452,.3200550869
-.28580910e-1,.6271211741,.3471686911
-.36176604e-1,.6357914485,.3741518202
-.43971317e-1,.6442198116,.4010257306
.54206601e-1,.5007957692,-.5364651084e-1
.49968734e-1,.5135475423,-.2219033354e-1
.45422524e-1,.5259245176,.8675824329e-2
.40584293e-1,.5379465361,.3901186849e-1
.35468216e-1,.5496308286,.6887080794e-1
.30086660e-1,.5609924264,.9829993926e-1
.24450446e-1,.5720444826,.1273417770
.18569068e-1,.5827985384,.1560348270
.12450866e-1,.5932647311,.1844141991
.6103170e-2,.6034519688,.2125121232
-.467584e-3,.6133680753,.2403583867
-.7255758e-2,.6230199049,.2679806895
-.14256427e-1,.6324134418,.2954049574
-.21465319e-1,.6415538814,.3226556097
-.28878753e-1,.6504456962,.3497557864
-.36493597e-1,.6590926934,.3767275587
.57758179e-1,.5113821764,-.8343381663e-1
.53823382e-1,.5245023369,-.5136904393e-1
.49562802e-1,.5372265003,-.1995735553e-1
.44995129e-1,.5495773867,.1086887077e-1
.40136518e-1,.5615746346,.4116900198e-1
.35001006e-1,.5732353033,.7099559801e-1
.29600839e-1,.5845742796,.1003955839
.23946738e-1,.5956045932,.1294111643
.18048107e-1,.6063376782,.1580805819
.11913211e-1,.6167835776,.1864387223
.5549310e-2,.6269511185,.2145176302
-.1037219e-2,.6368480507,.2423469294
-.7840791e-2,.6464811627,.2699541825
-.148565323e-1,.6558563807,.2973652009
-.220802118e-1,.6649788449,.3246043017
-.295081913e-1,.6738529797,.3516945452
.605648717e-1,.5215687338,-.1146767494
.569608197e-1,.5350909190,-.8191725284e-1
.530103147e-1,.5481919852,-.4988469769e-1
.487349637e-1,.5608981953,-.1850185181e-1
.441533307e-1,.5732321126,.1229848352e-1
.392814607e-1,.5852132429,.4257532301e-1
.341332997e-1,.5968585370,.7238094315e-1
.287210183e-1,.6081827878,.1017620273
.230552703e-1,.6191989455,.1307605804
.171454045e-1,.6299183732,.1594146719
.109996338e-1,.6403510553,.1877590481
.46251766e-2,.6505057642,.2158256279
-.19716310e-2,.6603902028,.2436439333
-.87852381e-2,.6700111176,.2712414380
-.158108018e-1,.6793743954,.2986438770
-.230441211e-1,.6884851423,.3258755043
.625591746e-1,.5312953704,-.1475454479
.593188959e-1,.5452597278,-.1139873223
.557073934e-1,.5587728578,-.8124380987e-1
.517499225e-1,.5718654583,-.4922551505e-1
.474680218e-1,.5845637043,-.1785544355e-1
.428801948e-1,.5968900949,.1293342906e-1
.380024422e-1,.6088640745,.4319995466e-1
.328486693e-1,.6205025467,.7299628601e-1
.274310116e-1,.6318202627,.1023690001
.217600947e-1,.6428301370,.1313600119
.158452414e-1,.6535435032,.1600073188
.96946436e-2,.6639703175,.1883456001
.33154994e-2,.6741193294,.2164067223
-.32858719e-2,.6839982207,.2442201614
-.101039349e-1,.6936137190,.2718133516
-.171338610e-1,.7029716945,.2992119952
.636607742e-1,.5404890148,-.1822475743
.608242801e-1,.5549441793,-.1477635909
.575864740e-1,.5689115428,-.1141999174
.539772684e-1,.5824274633,-.8145148131e-1
.500219454e-1,.5955226724,-.4942879480e-1
.457420638e-1,.6082233746,-.1805478417e-1
.411561461e-1,.6205520856,.1273762094e-1
.362802071e-1,.6325282704,.4300732641e-1
.311281648e-1,.6441688458,.7280651997e-1
.257121647e-1,.6554885767,.1021818136
.200428415e-1,.6665003882,.1311751492
.141295261e-1,.6772156237,.1598245477
.79804170e-2,.6876442469,.1881647060
.16027178e-2,.6977950160,.2162275114
-.49972460e-2,.7076756176,.2440424493
-.118139351e-1,.7172927862,.2716369691
.637726851e-1,.5490592886,-.2190406653
.613892953e-1,.5640652112,-.1834722787
.585674521e-1,.5785381843,-.1489539616
.553431524e-1,.5925219654,-.1153599626
.517464909e-1,.6060531340,-.8258459200e-1
.478028947e-1,.6191625976,-.5053787738e-1
.435340404e-1,.6318767039,-.1914235451e-1
.389585473e-1,.6442180852,.1166936134e-1
.340925097e-1,.6562063058,.4195644015e-1
.289499136e-1,.6678583626,.7177127863e-1
.235429615e-1,.6791890915,.1011606713
.178823372e-1,.6902114773,.1301667097
.119774144e-1,.7009369138,.1588275380
.58364283e-2,.7113754113,.1871779643
-.5333839e-3,.7215357659,.2152499615
-.71256689e-2,.7314257022,.2430730989
.627756747e-1,.5568922407,-.2582501527
.609074504e-1,.5725243557,-.2213956564
.585540172e-1,.5875666907,-.1857539822
.557595457e-1,.6020729343,-.1511713887
.525604697e-1,.6160873751,-.1175206331
.489872266e-1,.6296470087,-.8469486759e-1
.450655162e-1,.6427830751,-.5260320235e-1
.408172366e-1,.6555221898,-.2116744273e-1
.362611877e-1,.6678872070,.9680394442e-2
.314136154e-1,.6798978715,.3999995922e-1
.262886311e-1,.6915713369,.6984405837e-1
.208985457e-1,.7029225673,.9925981580e-1
.152541347e-1,.7139646602,.1282896062
.93648511e-2,.7247091067,.1569718124
.32390001e-2,.7351660007,.1853414406
-.31161203e-2,.7453442142,.2134306384
.605199191e-1,.5638407882,-.3002969021
.592469240e-1,.5801964137,-.2618931293
.574284259e-1,.5958889708,-.2249117025
.551199433e-1,.6109859444,-.1891596994
.523665129e-1,.6255420748,-.1544804007
.492052329e-1,.6396024574,-.1207442978
.456670607e-1,.6532047201,-.8784278144e-1
.417781098e-1,.6663806061,-.5568357322e-1
.375606124e-1,.6791571382,-.2418736578e-1
.330336438e-1,.6915575016,.6714717706e-2
.282136762e-1,.7036017203,.3708307052e-1
.231150126e-1,.7153071789,.6697110532e-1
.177501258e-1,.7266890385,.9642645224e-1
.121299299e-1,.7377605654,.1254919111
.62639982e-2,.7485333962,.1542062220
.1607398e-3,.7590177530,.1826046968
.568119198e-1,.5697095723,-.3457409920
.562406716e-1,.5869181841,-.3054337620
.550437729e-1,.6033663058,-.2668274200
.532931622e-1,.6191413815,-.2296719425
.510459718e-1,.6343128547,-.1937688209
.483484429e-1,.6489369350,-.1589571773
.452385970e-1,.6630598371,-.1251043550
.417481116e-1,.6767200638,-.9209930545e-1
.379036725e-1,.6899500550,-.5984782486e-1
.337279740e-1,.7027773945,-.2826907195e-1
.292404694e-1,.7152257268,.2707072307e-2
.244579441e-1,.7273154574,.3314201833e-1
.193949639e-1,.7390642896,.6309001510e-1
.140642238e-1,.7504876554,.9259939229e-1
.84768285e-2,.7615990520,.1217135320
.26425154e-2,.7724103160,.1504716675
.513928213e-1,.5742295424,-.3953554384
.516706767e-1,.5924702539,-.3526489635
.512120982e-1,.6098158179,-.3120290895
.501140548e-1,.6263840999,-.2731581484
.484514625e-1,.6422661639,-.2357757212
.462836073e-1,.6575340718,-.1996758267
.436583350e-1,.6722459803,-.1646920664
.406148893e-1,.6864495931,-.1306875939
.371859002e-1,.7001845692,-.9754813105e-1
.333988082e-1,.7134842667,-.6517693477e-1
.292769157e-1,.7263770081,-.3349113927e-1
.248401722e-1,.7388870416,-.2418991109e-2
.201057739e-1,.7510352718,.2810225423e-1
.150886304e-1,.7628398195,.5812794502e-1
.98017276e-2,.7743164700,.8770732417e-1
.42564182e-2,.7854790225,.1168845395
.438997382e-1,.5770121469,-.4502596394
.452412770e-1,.5965457860,-.4044231277
.456850745e-1,.6149882023,-.3612368428
.453689548e-1,.6325069279,-.3202190566
.443955204e-1,.6492266752,-.2810123019
.428435968e-1,.6652432576,-.2433425037
.407752810e-1,.6806321570,-.2069939095
.382405013e-1,.6954540616,-.1717929357
.352800837e-1,.7097585963,-.1375973196
.319278849e-1,.7235869131,-.1042886097
.282123153e-1,.7369735469,-.7176679961e-1
.241574555e-1,.7499477677,-.3994642325e-1
.197838896e-1,.7625345950,-.8753633542e-2
.151093373e-1,.7747555692,.2187601777e-1
.101491456e-1,.7866293422,.5199928129e-1
.49166691e-2,.7981721492,.8166656744e-1
.337897156e-1,.5774584506,-.5121854161
.365302550e-1,.5986925998,-.4620625188
.381205055e-1,.6185285484,-.4154768854
.387715394e-1,.6372228656,-.3716867722
.386324668e-1,.6549567944,-.3301705265
.378132940e-1,.6718640486,-.2905446195
.363979366e-1,.6880466314,-.2525171585
.344521253e-1,.7035844364,-.2158597642
.320284628e-1,.7185414066,-.1803896016
.291697963e-1,.7329696212,-.1459574785
.259115426e-1,.7469121298,-.1124396274
.222833404e-1,.7604049606,-.7973189385e-1
.183102536e-1,.7734785770,-.4774552835e-1
.140136636e-1,.7861589708,-.1640403793e-1
.94119484e-2,.7984684784,.1435916545e-1
.45210007e-2,.8104264200,.4460260343e-1
.201679404e-1,.5745523359,-.5840857438
.248888054e-1,.5981936030,-.5276456733
.280188091e-1,.6199011512,-.4763010006
.299197187e-1,.6401147148,-.4287713867
.308275510e-1,.6591211734,-.3842262270
.309065237e-1,.6771201402,-.3420903099
.302764075e-1,.6942571958,-.3019456933
.290277525e-1,.7106424078,-.2634772317
.272309813e-1,.7263613755,-.2264401938
.249421247e-1,.7414822029,-.1906398902
.222066012e-1,.7560601009,-.1559182731
.190618036e-1,.7701405169,-.1221448414
.155389172e-1,.7837613612,-.8921020135e-1
.116642389e-1,.7969545951,-.5702147042e-1
.74601476e-2,.8097474219,-.2549884812e-1
.29458386e-2,.8221631742,.5426940386e-2
.67209412e-1,.4660593533,.7919341599e-1
.61737777e-1,.4773114572,.1084826978
.56014940e-1,.4882582234,.1373985594
.50049975e-1,.4989106772,.1659782458
.43850854e-1,.5092785107,.1942558132
.37424582e-1,.5193702382,.2222625923
.30777307e-1,.5291933321,.2500276023
.23914409e-1,.5387543331,.2775778919
.16840578e-1,.5480589416,.3049388323
.9559876e-2,.5571120936,.3321343709
.2075785e-2,.5659180232,.3591872525
-.5608745e-2,.5744803160,.3861192177
-.13491264e-1,.5828019498,.4129511730
-.21569792e-1,.5908853305,.4397033540
-.29842800e-1,.5987323180,.4663954691
-.38309189e-1,.6063442474,.4930468344
.73425032e-1,.4780547286,.5432889737e-1
.68171830e-1,.4895723419,.8396257599e-1
.62658857e-1,.5007742011,.1131887245
.56896233e-1,.5116726043,.1420477182
.50892842e-1,.5222783514,.1705762569
.44656492e-1,.5326009321,.1988079203
.38194042e-1,.5426486843,.2267736418
.31511510e-1,.5524289226,.2545020990
.24614159e-1,.5619480458,.2820200505
.17506575e-1,.5712116255,.3093526196
.10192720e-1,.5802244807,.3365235470
.2675990e-2,.5889907367,.3635554003
-.5040750e-2,.5975138782,.3904697739
-.12955126e-1,.6057967884,.4172874558
-.21065235e-1,.6138417830,.4440285869
-.29369616e-1,.6216506358,.4707128024
.79095787e-1,.4898256627,.2849377449e-1
.74075074e-1,.5016258722,.5851338929e-1
.68784759e-1,.5130983746,.8808729313e-1
.63236174e-1,.5242569464,.1172595759
.57439256e-1,.5351136631,.1460700613
.51402727e-1,.5456791313,.1745549821
.45134257e-1,.5559626689,.2027475174
.38640579e-1,.5659724636,.2306782630
.31927601e-1,.5757156954,.2583756079
.25000488e-1,.5851986419,.2858660649
.17863734e-1,.5944267652,.3131745494
.10521219e-1,.6034047829,.3403246238
.2976261e-2,.6121367284,.3673387098
-.4768343e-2,.6206259993,.3942382782
-.12710290e-1,.6288753974,.4210440163
-.20847738e-1,.6368871611,.4477759866
.84185937e-1,.5013433086,.1608058443e-2
.79413708e-1,.5134455537,.3206139932e-1
.74360537e-1,.5252063090,.6202596004e-1
.69039180e-1,.5366410803,.9155026039e-1
.63460795e-1,.5477634295,.1206778472
.57635166e-1,.5585852482,.1494480884
.51570884e-1,.5691169812,.1778968284
.45275501e-1,.5793678067,.2060569218
.38755650e-1,.5893457865,.2339586830
.32017145e-1,.5990579895,.2616302647
.25065069e-1,.6085105931,.2890979774
.17903840e-1,.6177089675,.3163865644
.10537271e-1,.6266577468,.3435194424
.2968616e-2,.6353608874,.3705189128
-.4799390e-2,.6438217141,.3974063440
-.12764496e-1,.6520429612,.4242023434
.88654808e-1,.5125743509,-.2642141819e-1
.84149416e-1,.5250009417,.4521096144e-2
.79349923e-1,.5370700473,.3492580378e-1
.74270775e-1,.5487992270,.6484657535e-1
.68924565e-1,.5602037890,.9433142048e-1
.63322311e-1,.5712971255,.1234234569
.57473678e-1,.5820909820,.1521616925
.51387151e-1,.5925956755,.1805816657
.45070190e-1,.6028202731,.2087159733
.38529347e-1,.6127727365,.2365947072
.31770363e-1,.6224600466,.2642458346
.24798254e-1,.6318883004,.2916955049
.17617380e-1,.6410627952,.3189683247
.10231497e-1,.6499880991,.3460875983
.2643810e-2,.6586681061,.3730755291
-.5142993e-2,.6671060839,.3999534076
.924557587e-1,.5234799515,-.5570401426e-1
.882384657e-1,.5362567323,-.2420740417e-1
.837116907e-1,.5486573308,.6695041519e-2
.788919067e-1,.5607017723,.3706371904e-1
.737934177e-1,.5724074437,.6695204689e-1
.684286977e-1,.5837895071,.9640765832e-1
.628086627e-1,.5948612293,.1254733544
.569428867e-1,.6056342485,.1541878791
.508397787e-1,.6161187874,.1825865456
.445067297e-1,.6263238295,.2107017578
.379502317e-1,.6362572642,.2385634477
.311759710e-1,.6459260058,.2661994413
.241889166e-1,.6553360922,.2936357706
.169933820e-1,.6644927674,.3208969448
.95930843e-2,.6734005494,.3480061811
.19911891e-2,.6820632865,.3749856133
.955348489e-1,.5340143657,-.8636925070e-1
.916305469e-1,.5471715918,-.5424173282e-1
.873986269e-1,.5599305919,-.2277388508e-1
.828580349e-1,.5723143963,.8102750671e-2
.780251359e-1,.5843428975,.3844821758e-1
.729141439e-1,.5960333718,.6831564380e-1
.675374566e-1,.6074008866,.9775241934e-1
.619059210e-1,.6184586305,.1268011475
.560290549e-1,.6292181703,.1555003977
.499152189e-1,.6396896688,.1838853390
.435717595e-1,.6498820566,.2119882546
.370051287e-1,.6598031755,.2398389711
.302209799e-1,.6694598972,.2674652252
.232242493e-1,.6788582217,.2948929731
.160192219e-1,.6880033585,.3221466608
.86095885e-2,.6968997934,.3492494510
.978290801e-1,.5441230800,-.1185721429
.942672593e-1,.5576965969,-.8572174399e-1
.903562204e-1,.5708456357,-.5360810843e-1
.861179703e-1,.5835969412,-.2215268707e-1
.815713979e-1,.5959734764,.8712796231e-2
.767328225e-1,.6079950770,.3904823345e-1
.716164177e-1,.6196789712,.6890662697e-1
.662345474e-1,.6310401868,.9833526413e-1
.605980315e-1,.6420918766,.1273766590
.547163624e-1,.6528455787,.1560693097
.485978795e-1,.6633114286,.1844483209
.422499101e-1,.6734983346,.2125459245
.356788898e-1,.6834141173,.2403918999
.288904565e-1,.6930656313,.2680139481
.218895327e-1,.7024588593,.2954379920
.146803916e-1,.7115989959,.3226884487
.992640304e-1,.5537402665,-.1525004965
.960801131e-1,.5677731332,-.1188155533
.925209387e-1,.5813498679,-.8595943945e-1
.886123723e-1,.5945019104,-.5384071292e-1
.843764452e-1,.6072560408,-.2238073034e-1
.798320677e-1,.6196352440,.8488844938e-2
.749955760e-1,.6316593770,.3882796124e-1
.698811582e-1,.6433456862,.6868966851e-1
.645011900e-1,.6547092141,.9812129213e-1
.588665023e-1,.6657631259,.1271653770
.529865963e-1,.6765189708,.1558604490
.468698189e-1,.6869868943,.1842416366
.405235053e-1,.6971758124,.2123411886
.339540962e-1,.7070935541,.2401889036
.271672358e-1,.7167469798,.2678124948
.201678509e-1,.7261420792,.2952378988
.997505859e-1,.5627852286,-.1883851134
.969878014e-1,.5773299890,-.1537278902
.938179098e-1,.5913799034,-.1200112659
.902717487e-1,.6049724565,-.8712703215e-1
.863753375e-1,.6181392737,-.5498323447e-1
.821508316e-1,.6309072862,-.2350081644e-1
.776172428e-1,.6432996040,.7388895980e-2
.727909923e-1,.6553361856,.3774612113e-1
.676863390e-1,.6670343637,.6762413580e-1
.623157187e-1,.6784092539,.9707045316e-1
.566900138e-1,.6894740847,.1261277777
.508187699e-1,.7002404589,.1548347663
.447103733e-1,.7107185689,.1832266601
.383721926e-1,.7209173731,.2113358049
.318106996e-1,.7308447366,.2391920793
.250315648e-1,.7405075535,.2668232672
.991803247e-1,.5711572686,-.2265145374
.968924238e-1,.5862792589,-.1907118768
.941577726e-1,.6008582154,-.1559882006
.910137771e-1,.6149396083,-.1222129462
.874916351e-1,.6285613557,-.8927669537e-1
.836176512e-1,.6417554348,-.5708652361e-1
.794142123e-1,.6545490543,-.2556261538e-1
.749005195e-1,.6669655554,.5364327723e-2
.700931505e-1,.6790250874,.3575503310e-1
.650064956e-1,.6907451431,.6566319674e-1
.596531024e-1,.7021409736,.9513668142e-1
.540439489e-1,.7132259225,.1242184811
.481886630e-1,.7240116937,.1529475027
.420957028e-1,.7345085671,.1813591946
.357725004e-1,.7447255777,.2094860805
.292255835e-1,.7546706591,.2373581899
.974187422e-1,.5787280715,-.2672569866
.956740713e-1,.5945103665,-.2300862408
.934322388e-1,.6096883541,-.1941698670
.907395938e-1,.6243183701,-.1593466289
.876342390e-1,.6384467306,-.1254835852
.841479150e-1,.6521120167,-.9246946897e-1
.803073589e-1,.6653467262,-.6020991572e-1
.761353050e-1,.6781784961,-.2862393907e-1
.716512399e-1,.6906310102,.2358686187e-2
.668719773e-1,.7027247059,.3279945591e-1
.618121053e-1,.7144773165,.6275269831e-1
.564843390e-1,.7259042965,.9226680017e-1
.508997991e-1,.7370191642,.1213851986
.450682382e-1,.7478337735,.1501471676
.389982215e-1,.7583585356,.1785884718
.326972763e-1,.7686026000,.2067418989
.942949378e-1,.5853299170,-.3110943692
.931828041e-1,.6018810723,-.2722612406
.915076782e-1,.6177479020,-.2349112172
.893285351e-1,.6330020883,-.1988394004
.866929887e-1,.6477015093,-.1638801838
.836401075e-1,.6618936531,-.1298973267
.802023843e-1,.6756180131,-.9677701477e-1
.764071514e-1,.6889078147,-.6442287138e-1
.722776238e-1,.7017912752,-.3275231957e-1
.678336797e-1,.7142925572,-.1693838056e-2
.630924573e-1,.7264324913,.2881511991e-1
.580688161e-1,.7382291411,.5882975199e-1
.527757008e-1,.7496982401,.8839916675e-1
.472244286e-1,.7608535453,.1175674049
.414249210e-1,.7717071161,.1463742496
.353858908e-1,.7822695423,.1748558938
.895850829e-1,.5907365366,-.3586776960
.892262293e-1,.6082033170,-.3177795774
.882154606e-1,.6248776840,-.2786736984
.866304121e-1,.6408540039,-.2410901462
.845323277e-1,.6562067189,-.2048161399
.819705041e-1,.6709957513,-.1696802709
.789852889e-1,.6852701432,-.1355419197
.756101677e-1,.6990705977,-.1022838921
.718732584e-1,.7124312922,-.6980717202e-1
.677984071e-1,.7253812129,-.3802707370e-1
.634060062e-1,.7379451468,-.6870381539e-2
.587136190e-1,.7501444412,.2372683464e-1
.537364598e-1,.7619975907,.5382090993e-1
.484877731e-1,.7735206935,.8346189866e-1
.429791320e-1,.7847278173,.1126946310
.372206782e-1,.7956312894,.1415595553
.829842344e-1,.5946300563,-.4109231097
.835492207e-1,.6132197810,-.3673843242
.833367524e-1,.6308644956,-.3260752401
.824537113e-1,.6476941172,-.2866233259
.809818708e-1,.6638080427,-.2487441946
.789854364e-1,.6792843155,-.2122147658
.765158908e-1,.6941855130,-.1768560860
.736152353e-1,.7085626896,-.1425218591
.703182354e-1,.7224581025,-.1090905387
.666540180e-1,.7359071553,-.7645970608e-1
.626472367e-1,.7489398163,-.4454197499e-1
.583189414e-1,.7615816714,-.1326195824e-1
.536872366e-1,.7738547259,.1744604149e-1
.487677878e-1,.7857780234,.4763981217e-1
.435742201e-1,.7973681244,.7737061035e-1
.381184304e-1,.8086394907,.1066842725
.740541354e-1,.5965391088,-.4691924464
.757984547e-1,.6165623328,-.4221397691
.765771325e-1,.6354118032,-.3779752738
.765466282e-1,.6532776982,-.3361512675
.758217186e-1,.6702995314,-.2962674102
.744895709e-1,.6865832568,-.2580204209
.726182220e-1,.7022115724,-.2211738881
.702619628e-1,.7172504720,-.1855391363
.674649095e-1,.7317535784,-.1509626115
.642634551e-1,.7457651280,-.1173172143
.606880042e-1,.7593220782,-.8449620582e-1
.567642311e-1,.7724556370,-.5240878413e-1
.525140124e-1,.7851923950,-.2097682187e-1
.479561315e-1,.7975551846,.9867605642e-2
.431068195e-1,.8095637346,.4018410476e-1
.379801761e-1,.8212351836,.7002544324e-1
.93735375e-1,.4641208319,.1283295346
.87845759e-1,.4748648737,.1570112848
.81719586e-1,.4853213762,.1853805030
.75364152e-1,.4954992099,.2134693346
.68785867e-1,.5054061614,.2413074836
.61990342e-1,.5150490551,.2689225886
.54982477e-1,.5244338466,.2963405181
.47766526e-1,.5335657053,.3235856428
.40346149e-1,.5424490806,.3506810651
.32724460e-1,.5510877569,.3776488208
.24904062e-1,.5594848996,.4045100622
.16887080e-1,.5676430917,.4312852202
.8675184e-2,.5755643622,.4579941531
.269607e-3,.5832502097,.4846562868
-.8328842e-2,.5907016182,.5112907443
-.17119767e-1,.5979190674,.5379164696
.100632942,.4765340809,.1046161307
.94942911e-1,.4875207223,.1335793523
.89009613e-1,.4982116689,.1622016510
.82841159e-1,.5086167787,.1905174736
.76444676e-1,.5187447146,.2185584893
.69826419e-1,.5286030808,.2463540037
.62991866e-1,.5381985360,.2739313086
.55945795e-1,.5475368874,.3013159830
.48692348e-1,.5566231682,.3285321494
.41235081e-1,.5654617030,.3556027009
.33577013e-1,.5740561606,.3825495005
.25720658e-1,.5824095976,.4093935569
.17668057e-1,.5905244940,.4361551856
.9420799e-2,.5984027808,.4628541566
.980039e-3,.6060458617,.4895098309
-.7653491e-2,.6134546283,.5161412893
.107027512,.4887609607,.8003199268e-1
.101548595,.5000042157,.1093101095
.95818752e-1,.5109424647,.1382159095
.89847022e-1,.5215866959,.1667865483
.83641348e-1,.5319465636,.1950559919
.77208709e-1,.5420305518,.2230555038
.70555230e-1,.5518461046,.2508140405
.63686271e-1,.5613997385,.2783586017
.56606502e-1,.5706971310,.3057145149
.49319970e-1,.5797431954,.3329056854
.41830140e-1,.5885421489,.3599548321
.34139947e-1,.5970975584,.3868836673
.26251828e-1,.6054123853,.4137130773
.18167749e-1,.6134890192,.4404632801
.9889227e-2,.6213293051,.4671539706
.1417350e-2,.6289345632,.4938044561
.112888808,.5007779407,.5451234573e-1
.107633976,.5122935736,.8414339080e-1
.102119439,.5234935317,.1133671630
.96355310e-1,.5343901048,.1422240173
.90350465e-1,.5449940837,.1707506311
.84112705e-1,.5553149515,.1989805697
.77648884e-1,.5653610381,.2269447471
.70965017e-1,.5751396529,.2546718306
.64066361e-1,.5846571896,.2821885677
.56957497e-1,.5939192146,.3095200728
.49642386e-1,.6029305420,.3366900766
.42124418e-1,.6116952942,.3637211435
.34406457e-1,.6202169510,.3906348601
.26490872e-1,.6284983927,.4174520110
.18379566e-1,.6365419312,.4441927327
.10073994e-1,.6443493369,.4708766575
.118182701,.5125581764,.2798248363e-1
.113166650,.5243640516,.5801003475e-1
.107880791,.5358419714,.8759109041e-1
.102336483,.5470057422,.1167698167
.96543685e-1,.5578674673,.1455861056
