-.193957614,.4280948842,-.3653910691
-.194743528,.4569778798,-.2977431675
-.197232209,.4837911349,-.2346978734
-.201124731,.5088979951,-.1752162537
-.206212750,.5325517076,-.1185730495
-.212344541,.5549366981,-.6423674445e-1
-.2194059505,.5761917208,-.1180260102e-1
-.2273089647,.5964237579,.3904741386e-1
-.2359844717,.6157168164,.8856995594e-1
-.2453774833,.6341377356,.1369770441
-.1986818987,.4364649181,-.4460626384
-.1970903568,.4682377540,-.3715775882
-.1977085721,.4973245927,-.3034619044
-.2000618345,.5243024497,-.2400611000
-.2038408243,.5495473118,-.1803000334
-.2088309269,.5733200436,-.1234318633
-.2148763704,.5958099903,-.6891131544e-1
-.2218602501,.6171592516,-.1632443628e-1
-.2296925993,.6374771840,.3465322557e-1
-.2383028692,.6568495388,.8428293062e-1
-.2093945775,.4394770502,-.5428180338
-.2042592790,.4755573852,-.4574832978
-.2022937395,.5077848231,-.3818863959
-.2026275618,.5372173452,-.3129720054
-.2047523638,.5644729005,-.2489670707
-.2083405435,.5899496952,-.1887327214
-.2131665628,.6139218727,-.1314844472
-.2190676493,.6365872884,-.7665313205e-1
-.2259221618,.6580937974,-.2380893863e-1
-.2336367880,.6785548235,.2738360621e-1
-.2298213370,.4328029353,-.6682085101
-.2183383135,.4765990417,-.5621746435
-.2123751472,.5136856646,-.4742180241
-.2098422214,.5466027691,-.3969178842
-.2097498138,.5765533819,-.3267941021
-.2115350358,.6042217027,-.2618813902
-.2148413026,.6300411670,-.2009396538
-.2194260115,.6543066626,-.1431254154
-.2251155729,.6772291900,-.8783264522e-1
-.2317810918,.6989654244,-.3460709372e-1
-.2756815605,.3975887036,-.8780028580
-.2444378061,.4654043243,-.7029978651
-.2306752328,.5119712623,-.5892706944
-.2234713080,.5505660491,-.4973344361
-.2201139463,.5844852710,-.4175263672
-.2194135152,.6151749465,-.3456530939
-.2207202437,.6434248845,-.2794421909
-.2236327718,.6697229444,-.2174968025
-.2278827011,.6943953705,-.1588840738
-.2332803513,.7176727219,-.1029428798
-.3141971448+.8321692472e-1*I,.3740042352+.1011516313*I,-1.047197551+.3019979782*I
-.3288365850+.1523474370e-1*I,.3860480272+.1851809813e-1*I,-1.047197551+.5610237556e-1*I
-.2649218641,.4935757822,-.7535665643
-.2472844969,.5448526003,-.6265492491
-.2381958288,.5857383256,-.5284675550
-.2336455873,.6211075138,-.4449679596
-.2320893526,.6528374329,-.3705874108
-.2327345563,.6818914666,-.3025471707
-.2351095773,.7088428768,-.2392036174
-.2389067874,.7340655906,-.1794875097
-.3089463597+.1309414088*I,.4067562229+.1591615786*I,-1.047197551+.4654583899*I
-.3235858008+.1001599689*I,.4188000155+.1217461986*I,-1.047197551+.3611343573*I
-.3382252415+.5664355428e-1*I,.4308438078+.6885123352e-1*I,-1.047197551+.2072148491*I
-.2952024829,.5129770158,-.8331118466
-.2696867191,.5738301629,-.6784962067
-.2575584359,.6184105935,-.5702956387
-.2512338454,.6559365335,-.4811857240
-.2484575549,.6891494531,-.4031492136
-.2481842668,.7193199295,-.3325078858
-.2498264111,.7471621630,-.2672092854
-.3060018793+.1697852947*I,.4404426627+.2063770030*I,-1.047197551+.5906246090*I
-.3206413196+.1458103775*I,.4524864544+.1772350708*I,-1.047197551+.5142633359*I
-.3352807604+.1182556200*I,.4645302468+.1437417798*I,-1.047197551+.4229819592*I
-.3499202011+.8365538240e-1*I,.4765740392+.1016845844*I,-1.047197551+.3035421395*I
-.3645596418+.1738275899e-1*I,.4886178313+.2112904838e-1*I,-1.047197551+.6400238317e-1*I
-.3010722829,.5956261202,-.7552111625
-.2832960078,.6470717828,-.6277132438
-.2741448226,.6880334992,-.5294258473
-.2695562374,.7234492938,-.4458064555
-.2679729666,.7552120765,-.3713458919
-.3058990087+.2057421396*I,.4752804433+.2500831785*I,-1.047197551+.6995737636*I
-.3205384506+.1851247725*I,.4873242365+.2250224073*I,-1.047197551+.6379281920*I
-.3351778910+.1627963189*I,.4993680285+.1978817803*I,-1.047197551+.5686676238*I
-.3498173317+.1379282685*I,.5114118209+.1676542289*I,-1.047197551+.4885262707*I
-.3644567730+.1087928244*I,.5234556135+.1322395859*I,-1.047197551+.3908177787*I
-.3790962135+.7026845862e-1*I,.5354994057+.8541254368e-1*I,-1.047197551+.2560929133*I
-.3528643858,.5972229429,-.8960339420
-.3189968464,.6682278208,-.7116241686
-.3046237590,.7155368482,-.5958193332
-.2971044298,.7545150152,-.5028626329
-.3094643696+.2412499625*I,.5116044916+.2932435600*I,-1.047197551+.8005755878*I
-.3241038106+.2227097189*I,.5236482842+.2707075687*I,-1.047197551+.7486465122*I
-.3387432518+.2031939936*I,.5356920768+.2469858624*I,-1.047197551+.6920750191*I
-.3533826923+.1823899265*I,.5477358687+.2216981541*I,-1.047197551+.6295842839*I
-.3680221334+.1597951103*I,.5597796613+.1942337587*I,-1.047197551+.5591617448*I
-.3826615738+.1345101312*I,.5718234535+.1634994232*I,-1.047197551+.4772704274*I
-.3973010151+.1046020027*I,.5838672463+.1271455685*I,-1.047197551+.3764474939*I
-.4119404554+.6387713882e-1*I,.5959110382+.7764378242e-1*I,-1.047197551+.2332324917*I
-.3766710218,.6686199435,-.8622578386
-.3475605182,.7338425609,-.6948711724
-.131991892,.4418095766,-.2456217430
-.135652084,.4671988395,-.1855665411
-.140539957,.4910958333,-.1284620073
-.146495411,.5136951632,-.7374813514e-1
-.153398610,.5351424952,-.2100113394e-1
-.161157511,.5555497027,.3011026466e-1
-.169700048,.5750043892,.7985222110e-1
-.178968994,.5935761133,.1284437287
-.188918481,.6113206269,.1760688795
-.199511570,.6282828306,.2228855110
-.131173291,.4553368897,-.3120921491
-.133319404,.4825665422,-.2481437938
-.136925344,.5080217490,-.1879536866
-.141766610,.5319753945,-.1307408936
-.1476810924,.5546245267,-.7593856107e-1
-.1545475966,.5761164596,-.2311834750e-1
-.1622731252,.5965642338,.2805418029e-1
-.1707849092,.6160563003,.7784742989e-1
-.1800251942,.6346628614,.1264820510
-.1899477030,.6524401676,.1741433716
-.1341983163,.4659676694,-.3876590124
-.1343701062,.4955971455,-.3182865793
-.1363654155,.5230101009,-.2539368446
-.1398458516,.5486178596,-.1934332720
-.1445794876,.5727023317,-.1359692909
-.1503994843,.5954663135,-.8096192108e-1
-.1571814645,.6170609864,-.2797212889e-1
-.1648301919,.6376021138,.2334191256e-1
-.1732712635,.6571801330,.7325388444e-1
-.1824456936,.6758667420,.1219882949
-.1423092460,.4723567057,-.4761528486
-.1397091728,.5053554295,-.3986498742
-.1395667413,.5353668469,-.3283832140
-.1413123323,.5630833394,-.2633638148
-.1445858318,.5889426328,-.2023392415
-.1491425797,.6132421157,-.1444588975
-.1548076915,.6361943626,-.8911232710e-1
-.1614514084,.6579570970,-.3584237432e-1
-.1689747268,.6786506613,.1570525163e-1
-.1773005055,.6983688214,.6581309670e-1
-.1578872047,.4718148469,-.5853132803
-.1508708460,.5101816423,-.4939822354
-.1476361181,.5439518003,-.4145495772
-.1470252768,.5745325785,-.3429358090
-.1484020689,.6026973532,-.2769163447
-.1513719927,.6289256489,-.2151183652
-.1556705584,.6535389556,-.1566225825
-.1611105047,.6767648950,-.1007761591
-.1675538719,.6987711592,-.4709424817e-1
-.1748959578,.7196850140,.4796353394e-2
-.1872817988,.4568840487,-.7369212285
-.1710020398,.5065106715,-.6145869284
-.1625424747,.5466317097,-.5185688295
-.1583824470,.5815265863,-.4362844821
-.1571030288,.6129200313,-.3627203972
-.1579606653,.6417158489,-.2952718125
-.1605074201,.6684585127,-.2323783844
-.1644487295,.6935060720,-.1730163435
-.1695788907,.7171085598,-.1164695285
-.1757478900,.7394483229,-.6221223419e-1
-.2631533698+.4370751287e-1*I,.3882021618+.5312724823e-1*I,-1.047197552+.1603505539*I
-.2102173382,.4823851256,-.7955714794
-.1887349525,.5383356320,-.6551638742
-.1780379400,.5811763281,-.5517564566
-.1725260710,.6177143908,-.4652326338
-.1703007307,.6502576202,-.3888582397
-.1704386032,.6799283239,-.3193896582
-.1724068686,.7073741515,-.2549677000
-.1758648403,.7330092162,-.1944078170
-.1805792391,.7571170716,-.1368987667
-.2581271245+.1090564298*I,.4210451277+.1325600028*I,-1.047197551+.3917191421*I
-.2727665648+.7065916516e-1*I,.4330889198+.8588745434e-1*I,-1.047197551+.2574862636*I
-.2471845676,.4940225762,-.8984553914
-.2129492080,.5654745452,-.7127243965
-.1984968610,.6128799160,-.5966493359
-.1909371010,.6519072263,-.5035615868
-.1873490419,.6861068647,-.4230451552
-.1864808854,.7170004134,-.3506844933
-.1876568563,.7454092896,-.2841151034
-.1904625070,.7718372620,-.2218942281
-.2554545682+.1527742902*I,.4548417431+.1856998287*I,-1.047197551+.5367447827*I
-.2700940090+.1264233650*I,.4668855354+.1536698171*I,-1.047197551+.4504169000*I
-.2847334497+.9442381400e-1*I,.4789293277+.1147738018*I,-1.047197551+.3412395661*I
-.2993728904+.4624880561e-1*I,.4909731199+.5621623423e-1*I,-1.047197551+.1695878325*I
-.2480741265,.5831659563,-.8017951332
-.2259651618,.6398780809,-.6591900802
-.2150292660,.6830091430,-.5549859903
-.2093789513,.7197154894,-.4680235047
-.2070588150,.7523739453,-.3913643987
-.2071255184,.7821311562,-.3216937716
-.2556942494+.1913608931*I,.4898183171+.2326025212*I,-1.047197551+.6568082914*I
-.2703336901+.1696020209*I,.5018621093+.2061542305*I,-1.047197551+.5900520443*I
-.2849731309+.1456049641*I,.5139059016+.1769853871*I,-1.047197551+.5135965151*I
-.2996125721+.1180121654*I,.5259496944+.1434458565*I,-1.047197551+.4221594919*I
-.3142520124+.8332492510e-1*I,.5379934863+.1012829076*I,-1.047197551+.3023783991*I
-.3288914536+.1578988844e-1*I,.5500372790+.1919288628e-1*I,-1.047197551+.5814445137e-1*I
-.2650815735,.6574375960,-.7539700981
-.2474102040,.7087557453,-.6268351615
-.2383062016,.7496601100,-.5287030220
-.2337465479,.7850407377,-.4451740288
-.76075055e-1,.4494833376,-.1406106501
-.81810601e-1,.4723499700,-.8541880668e-1
-.88517149e-1,.4940363333,-.3227658733e-1
-.96097422e-1,.5146606670,.1916457036e-1
-.104475535,.5343152137,.6918315137e-1
-.113591387,.5530730252,.1180071661
-.123396886,.5709925588,.1658274361
-.133853327,.5881208614,.2128068823
-.144929525,.6044958371,.2590872527
-.156600475,.6201478829,.3047941192
-.71350213e-1,.4662858178,-.1981363749
-.75990743e-1,.4904834625,-.1404537822
-.81729152e-1,.5133466148,-.8526821164e-1
-.88438256e-1,.5350298715,-.3213117348e-1
-.96020847e-1,.5556513880,.1930566549e-1
-.104401091,.5753033442,.6932062309e-1
-.113518924,.5940587477,.1181415957
-.123326285,.6119760175,.1659593082
-.133784491,.6291021748,.2129366214
-.1448623775,.6454750990,.2592152278
-.69495337e-1,.4812539782,-.2618049225
-.728032920e-1,.5070713901,-.2008674516
-.773894418e-1,.5313351346,-.1430566159
-.830802635e-1,.5542561304,-.8776661533e-1
-.897469062e-1,.5759909986,-.3454335115e-1
-.972909998e-1,.5966593101,.1696536583e-1
-.1056358627,.6163542722,.6704059060e-1
-.1147207993,.6351496624,.1159122153
-.1244972578,.6531044949,.1637724539
-.1349261688,.6702662600,.2107852852
-.711450660e-1,.4937535614,-.3334051519
-.727645948e-1,.5216232853,-.2680453726
-.759340517e-1,.5476090446,-.2067569373
-.804021379e-1,.5720162969,-.1486662702
-.859898050e-1,.5950626787,-.9314867083e-1
-.925645252e-1,.6169092803,-.3973764109e-1
-.1000253646,.6376787888,.1192750631e-1
-.1082937851,.6574666684,.6213385191e-1
-.1173077014,.6763483841,.1111156719
-.1270174929,.6943842519,.1590684449
-.772802839e-1,.5027608272,-.4158460672
-.766304984e-1,.5333889421,-.3441195659
-.779768154e-1,.5615907602,-.2780168878
-.809217632e-1,.5878494136,-.2161548095
-.851991577e-1,.6124884551,-.1576081585
-.906206880e-1,.6357367796,-.1017205054
-.970477029e-1,.6577629194,-.4800466450e-1
-.1043750230,.6786947230,.3914161241e-2
-.1125210493,.6986313749,.5433301547e-1
-.1214214149,.7176511135,.1034934060
-.896079755e-1,.5064110782,-.5144699399
-.856064683e-1,.5411132696,-.4326771956
-.844403757e-1,.5723689657,-.3594458819
-.853854065e-1,.6010585531,-.2922395662
-.880030532e-1,.6277150476,-.2295310246
-.920039963e-1,.6526901198,-.1703147385
-.971857224e-1,.6762299309,-.1138855039
-.1034002876,.6985143073,-.5972465260e-1
-.1105361227,.7196788640,-.7436081278e-2
-.1185070535,.7398283474,.4329221039e-1
-.1118129060,.5004923675,-.6414764662
-.1019042281,.5423748280,-.5406880335
-.968572631e-1,.5783477917,-.4556313471
-.949530801e-1,.6105006499,-.3802174565
-.953333720e-1,.6398766880,-.3114340318
-.974954014e-1,.6670869922,-.2475279086
-.1011146111,.6925260699,-.1873708312
-.1059672726,.7164658634,-.1301845378
-.1118917695,.7391028234,-.7540385087e-1
-.1187672404,.7605838576,-.2260155019e-1
-.1579418243,.4682776243,-.8461865515
-.1308676470,.5310250516,-.6860454441
-.1182508938,.5761992261,-.5761986794
-.1116580899,.6140511839,-.4862296756
-.1087029050,.6474815517,-.4076497328
-.1082973997,.6778127410,-.3366285186
-.1098353500,.7057816243,-.2710476579
-.1129376299,.7318490387,-.2095881849
-.1173485677,.7563257564,-.1513613786
-.1228863837,.7794327335,-.9573318953e-1
-.2073341427+.8249855782e-1*I,.4353446692+.1002784437*I,-1.047197551+.2994665221*I
-.2219735838+.1086760826e-1*I,.4473884618+.1320976841e-1*I,-1.047197551+.4003058060e-1*I
-.1573684906,.5557553746,-.7509081087
-.1399538066,.6067615182,-.6246607048
-.1309660718,.6475245564,-.5269108784
-.1264779007,.6828182970,-.4436050681
-.1249654943,.7144949432,-.3693541247
-.1256442336,.7435082132,-.3014075452
-.1280463100,.7704267362,-.2381351154
-.1318661877,.7956218972,-.1784748787
-.2049396632+.1342207140*I,.4692539539+.1631476315*I,-1.047197551+.4763147790*I
-.2195791041+.1042444092*I,.4812977462+.1267109073*I,-1.047197551+.3752178272*I
-.2342185448+.6331429170e-1*I,.4933415385+.7695963181e-1*I,-1.047197551+.2312133916*I
-.1982675530,.5668788882,-.8597024885
-.1694900994,.6316966776,-.6935027266
-.1563778539,.6774731320,-.5819810912
-.1495176917,.7156500685,-.4911530865
-.1463856301,.7492954338,-.4120340940
-.1458500215,.7797847655,-.3406377921
-.1472857672,.8078778801,-.2747790589
-.24716770e-1,.4528478744,-.4554972686e-1
-.32083871e-1,.4737313224,.6293156282e-2
-.40266338e-1,.4936236799,.5664841027e-1
-.49200490e-1,.5126023510,.1057553651
-.58835483e-1,.5307291374,.1538132406
-.69130437e-1,.5480537296,.2009913008
-.80052410e-1,.5646161699,.2474361231
-.91574936e-1,.5804486264,.2932769701
-.103676966,.5955766862,.3386298732
-.116342085,.6100203016,.3836008204
-.16957615e-1,.4719558807,-.9678987798e-1
-.23469790e-1,.4938785085,-.4325023814e-1
-.30874052e-1,.5147167882,.8521984138e-2
-.39090578e-1,.5345677448,.5881804483e-1
-.48056327e-1,.5535080108,.1078752599
-.57720938e-1,.5715987947,.1558913544
-.68043919e-1,.5888893205,.2030344662
-.78992636e-1,.6054192529,.2494503143
-.90540880e-1,.6212204487,.2952675062
-.102667819,.6363182314,.3406015733
-.11508297e-1,.4898084706,-.1525903724
-.17023317e-1,.5129431566,-.9691148418e-1
-.23533397e-1,.5348683294,-.4336752730e-1
-.30935766e-1,.5557089096,.8408286831e-2
-.39150557e-1,.5755619764,.5870735925e-1
-.48114695e-1,.5945041994,.1077671031
-.57777797e-1,.6125968189,.1557853228
-.68099348e-1,.6298890818,.2029302121
-.790467009e-1,.6464206718,.2493475324
-.905936335e-1,.6622234621,.2951659266
-.87612640e-2,.5060438329,-.2139661188
-.130833254e-1,.5306285816,-.1555267135
-.185437180e-1,.5538296683,-.9972600464e-1
-.250052459e-1,.5758138572,-.4608172525e-1
-.323637358e-1,.5967077732,.5777572642e-2
-.405383123e-1,.6166097210,.5614657315e-1
-.494651479e-1,.6355972858,.1052650784
-.590932835e-1,.6537324072,.1533326565
-.693817506e-1,.6710648847,.2005188352
-.802975343e-1,.6876348478,.2469703900
-.92634718e-2,.5201372357,-.2824000279
-.121084544e-1,.5465173998,-.2202806813
-.163012186e-1,.5712593101,-.1615301024
-.216492049e-1,.5945970284,-.1054772814
-.280109706e-1,.6167024802,-.5162558507e-1
-.352794097e-1,.6377058545,.4061965111e-3
-.433715399e-1,.6577080181,.5091962225e-1
-.522219673e-1,.6767884580,.1001594684
-.617785350e-1,.6950105713,.1483289906
-.719993330e-1,.7124253018,.1956004877
-.138257307e-1,.5312755242,-.3602039813
-.147505814e-1,.5599896414,-.2929417827
-.173518462e-1,.5866660483,-.2301905649
-.213390012e-1,.6116578804,-.1709406191
-.265087996e-1,.6352121896,-.1144842215
-.327128210e-1,.6575093823,-.6030108450e-1
-.398391701e-1,.6786854690,-.7994017650e-2
-.478014404e-1,.6988454799,.4274974444e-1
-.565317035e-1,.7180719814,.9218306258e-1
-.659758712e-1,.7364307191,.1405151635
-.237667902e-1,.5380710954,-.4513467785
-.220034973e-1,.5700526988,-.3763522350
-.224907726e-1,.5992986955,-.3078696519
-.247386614e-1,.6264046371,-.2441908728
-.284295290e-1,.6517566126,-.1842117912
-.333437775e-1,.6756215468,-.1271683838
-.393224334e-1,.6981926752,-.7250448213e-1
-.462464218e-1,.7196147354,-.1979885748e-1
-.540242407e-1,.7399989498,.3127799389e-1
-.625842158e-1,.7594324390,.8099095380e-1
-.415916380e-1,.5377532354,-.5638146492
-.355561762e-1,.5749277343,-.4756277449
-.329743590e-1,.6079042680,-.3981799413
-.328455193e-1,.6378991639,-.3279521226
-.346018737e-1,.6656025743,-.2629617118
-.378842696e-1,.6914510545,-.2019596401
-.424486071e-1,.7157413107,-.1440972534
-.481203545e-1,.7386854927,-.8876529148e-1
-.547699871e-1,.7604410363,-.3550739568e-1
-.622986657e-1,.7811280853,.1603018378e-1
-.738616764e-1,.5227037884,-.7198370265
-.588891293e-1,.5707414724,-.6019857476
-.510669288e-1,.6100877839,-.5080460102
-.473103607e-1,.6444922470,-.4270104334
-.463203624e-1,.6755338979,-.3542944606
-.474016837e-1,.7040578222,-.2874646079
-.501301643e-1,.7305795954,-.2250440320
-.542245152e-1,.7554411302,-.1660551199
-.594871268e-1,.7788826220,-.1098095327
-.657732516e-1,.8010800170,-.5579943144e-1
-.1565679596+.4339519381e-1*I,.4496550691+.5274761906e-1*I,-1.047197551+.1592143616*I
-.1034397360,.5440716460,-.7948402602
-.820299366e-1,.5999339222,-.6546869657
-.713610050e-1,.6427404852,-.5513731072
-.658654844e-1,.6792586766,-.4649010302
-.636513639e-1,.7117882676,-.3885602993
-.637976712e-1,.7414487186,-.3191156369
-.657726600e-1,.7688863736,-.2547116417
-.692362155e-1,.7945146512,-.1941657609
-.739553951e-1,.8186166954,-.1366679160
.22960367e-1,.4529020573,.4231090582e-1
.14236584e-1,.4721364354,.9175474831e-1
.4798472e-2,.4905025354,.1400956963
-.5310461e-2,.5080532377,.1875107716
-.16055165e-1,.5248311520,.2341524561
-.27407435e-1,.5408705587,.2801545224
-.39344754e-1,.5561988266,.3256364456
-.51849443e-1,.5708374474,.3707068148
-.64908034e-1,.5848027901,.4154660573
-.78510830e-1,.5981066434,.4600086899
.33213731e-1,.4737354873,-.4211662948e-2
.25192848e-1,.4938242532,.4642770524e-1
.16408376e-1,.5129848630,.9577334543e-1
.6913525e-2,.5312819947,.1440317649
-.3248968e-2,.5487675947,.1913777026
-.14044669e-1,.5654835206,.2379618995
-.25445881e-1,.5814634370,.2839168022
-.37430515e-1,.5967341939,.3293608710
-.49981257e-1,.6113168361,.3744019283
-.63084966e-1,.6252273376,.4191398353
.41523777e-1,.4936726963,-.5432834589e-1
.34299449e-1,.5147296893,-.2211509552e-2
.26247665e-1,.5347808934,.4837310497e-1
.17434595e-1,.5539067419,.9767275405e-1
.7912991e-2,.5721713545,.1458925267
-.2274771e-2,.5896262407,.1932060975
-.13094543e-1,.6063129075,.2397633986
-.24518867e-1,.6222647307,.2856962583
-.36525853e-1,.6375083179,.3311226660
-.49098361e-1,.6520645034,.3761500854
.47620507e-1,.5124830086,-.1086828674
.41314670e-1,.5346564418,-.5471414354e-1
.34096651e-1,.5557211030,-.2585112381e-2
.26050633e-1,.5757793172,.4800970577e-1
.17242902e-1,.5949116544,.9731792603e-1
.7726292e-2,.6131823380,.1455449005
-.24567516e-2,.6306429590,.1928645025
-.132720286e-1,.6473350897,.2394268147
-.246920362e-1,.6632921599,.2853637804
-.366948472e-1,.6785408220,.3307934758
.511495276e-1,.5298532260,-.1681581419
.459267869e-1,.5533431822,-.1118221520
.396759486e-1,.5755834682,-.5773782332e-1
.325074670e-1,.5967083425,-.5512779918e-2
.245067205e-1,.6168215840,.4516237196e-1
.157408772e-1,.6360048378,.9453807018e-1
.62634479e-2,.6543231451,.1428217466
-.38825968e-2,.6718287397,.1901888420
-.146626317e-1,.6885637081,.2367906260
-.260488058e-1,.7045619032,.2827599496
.516276756e-1,.5453391802,-.2340149416
.477207691e-1,.5704285563,-.1745686098
.426203288e-1,.5940671716,-.1179538406
.364775745e-1,.6164388351,-.6364084206e-1
.294063131e-1,.6376818824,-.1122602779e-1
.214943128e-1,.6579029972,.3960782862e-1
.128105054e-1,.6771859658,.8911680144e-1
.34097413e-2,.6955974620,.1375124867
-.66639601e-2,.7131909907,.1849734365
-.173751352e-1,.7300096591,.2316532895
.483611540e-1,.5582739260,-.3081555258
.461201300e-1,.5853882110,-.2444585994
.424349965e-1,.6107471561,-.1844652988
.375256792e-1,.6346180845,-.1274104699
.315513622e-1,.6571944868,-.7273723007e-1
.246312624e-1,.6786212731,-.2002387386e-1
.168569820e-1,.6990097889,.3105943506e-1
.83002692e-2,.7184472440,.8077781548e-1
-.9818921e-3,.7370029037,.1293495061
-.109438226e-1,.7547322920,.1769580348
.402759444e-1,.5675726955,-.3936863600
.402755297e-1,.5974104807,-.3238271832
.384166454e-1,.6249892644,-.2591123622
.350493997e-1,.6507346070,-.1983244467
.304126075e-1,.6749367945,-.1406330536
.246774701e-1,.6978039239,-.8544031433e-1
.179712872e-1,.7194907306,-.3229735592e-1
.103913448e-1,.7401154666,.1914441868e-1
.20135363e-2,.7597703834,.6916351740e-1
-.71020324e-2,.7785285392,.1179879679
.254999254e-1,.5712414981,-.4963454695
.288209956e-1,.6051166070,-.4166485805
.294949451e-1,.6357740938,-.3448520743
.281675228e-1,.6639988782,-.2786977613
.252380517e-1,.6902763437,-.2167959271
.209737708e-1,.7149313253,-.1582177387
.155636439e-1,.7381935113,-.1023045283
.91467518e-2,.7602319554,-.4856765917e-1
.18285705e-2,.7811748673,.3368654870e-2
-.63090874e-2,.8011216913,.5380215351e-1
-.235216e-4,.5647175640,-.6293683473
.92169650e-2,.6057878271,-.5307869299
.138601858e-1,.6412700329,-.4469967193
.154819287e-1,.6730795800,-.3724222136
.148867798e-1,.7021944548,-.3042420045
.125521028e-1,.7291949037,-.2407922547
.87886700e-2,.7544586747,-.1809927721
.38119680e-2,.7782476950,-.1240937055
-.22216705e-2,.8007519922,-.6954786941e-1
-.91949586e-2,.8221141266,-.1694004094e-1
.67528524e-1,.4502837554,.1247262231
.57630196e-1,.4680904536,.1724201147
.47085687e-1,.4851117077,.2192940741
.35925249e-1,.5013842893,.2654873268
.24173114e-1,.5169376518,.3111235137
.11848432e-1,.5317950748,.3563143854
-.1034035e-2,.5459744992,.4011627184
-.14463423e-1,.5594891322,.4457646990
-.28432412e-1,.5723478710,.4902119381
-.42937002e-1,.5845555761,.5345932382
.79909328e-1,.4724618585,.8190393105e-1
.70611102e-1,.4909979911,.1304515885
.60634042e-1,.5087089896,.1780399594
.50014757e-1,.5256393512,.2248259325
.38782721e-1,.5418249045,.2709466537
.26961519e-1,.5572943148,.3165241718
.14569746e-1,.5720701875,.3616690289
.1621677e-2,.5861698721,.4064831002
-.11872260e-1,.5996060440,.4510619283
-.25905152e-1,.6123871075,.4954966993
.90606704e-1,.4939861587,.3612828639e-1
.81974505e-1,.5133318582,.8572186484e-1
.72621926e-1,.5318019244,.1341886581
.62593656e-1,.5494506750,.1817092178
.51925691e-1,.5663218674,.2284386987
.40647011e-1,.5824507234,.2745129181
.28780781e-1,.5978654018,.3200529134
.16345240e-1,.6125880731,.3651684566
.3354348e-2,.6266357049,.4099608525
-.10181753e-1,.6400206271,.4545252360
.99422045e-1,.5146982385,-.1303904320e-1
.91538320e-1,.5349537214,.3784571318e-1
.82880627e-1,.5542684324,.8739742393e-1
.73504249e-1,.5727095712,.1358290293
.63453544e-1,.5903310519,.1833200876
.52764245e-1,.6071763105,.2300250030
.41465112e-1,.6232803059,.2760790200
.29579130e-1,.6386709761,.3216027371
.17124383e-1,.6533703017,.3667055928
.4114691e-2,.6673950834,.4114886457
.1061045828,.5343927049,-.6617518143e-1
.990752708e-1,.5556867426,-.1367793971e-1
.912015218e-1,.5759543518,.3722481439e-1
.825530408e-1,.5952802609,.8679163888e-1
.731852638e-1,.6137318531,.1352359439
.631426665e-1,.6313631898,.1827376508
.524610791e-1,.6482178221,.2294514312
.411693396e-1,.6643308041,.2755127378
.292904980e-1,.6797301537,.3210423271
.168426944e-1,.6944379195,.3661497573
.1103293867,.5527945932,-.1240608155
.1042951617,.5752981759,-.6951624039e-1
.973213467e-1,.5966596713,-.1690945131e-1
.894981652e-1,.6169887461,.3408484246e-1
.808963533e-1,.6363713824,.8372851106e-1
.715721304e-1,.6548759156,.1322374049
.615705812e-1,.6725571468,.1797932672
.509280214e-1,.6894592182,.2265521525
.396736874e-1,.7056176672,.2726505692
.278309625e-1,.7210609168,.3182100808
.1116611498,.5695210132,-.1877901965
.1068166861,.5934707723,-.1305848399
.1008993941,.6161164893,-.7578858267e-1
.940303742e-1,.6376053649,-.2297339522e-1
.863025583e-1,.6580503585,.2819493521e-1
.777886672e-1,.6775398636,.7798466360e-1
.685464186e-1,.6961440382,.1266163253
.586220622e-1,.7139190981,.1742751618
.480528405e-1,.7309103138,.2211198828
.368687478e-1,.7471541424,.2672890176
.1094900562,.5840111974,-.2589720802
.1061197291,.6097527952,-.1981919242
.1014803032,.6339517811,-.1405067340
.957428603e-1,.6568161074,-.8531904755e-1
.890346193e-1,.6785004127,-.3218026090e-1
.814528101e-1,.6991228808,.1925803734e-1
.730732859e-1,.7187757111,.6927421739e-1
.639561213e-1,.7375319276,.1180962169
.541493888e-1,.7554499618,.1659147934
.436917789e-1,.7725768427,.2128928250
.1029065278,.5953858046,-.3401350514
.1014579212,.6234632877,-.2743113361
.984290754e-1,.6496199619,-.2126643011
.940805210e-1,.6741725066,-.1542883834
.885970626e-1,.6973455567,-.9853916728e-1
.821150394e-1,.7193048335,-.4493728652e-1
.747380314e-1,.7401762405,.6886734180e-2
.665464864e-1,.7600575634,.5722618798e-1
.576039141e-1,.7790259993,.1063198641
.479610291e-1,.7971431928,.1543665864
.904190968e-1,.6021212778,-.4356702361
.916791495e-1,.6334911837,-.3621630781
.908065965e-1,.6622688698,-.2947558918
.882477517e-1,.6889968384,-.2318940323
.842962785e-1,.7140320423,-.1725568675
.791573327e-1,.7376238536,-.1160301092
.729805738e-1,.7599541845,-.6178926342e-1
.658787445e-1,.7811600759,-.9434307197e-2
.579388552e-1,.8013472904,.4134950087e-1
.492292787e-1,.8205989370,.9081644978e-1
.109386283,.4454281877,.2029041170
.98439271e-1,.4619601927,.2493218061
.86892667e-1,.4777633822,.2951405016
.74767317e-1,.4928630959,.3404757644
.62079459e-1,.5072790719,.3854332310
.48841282e-1,.5210261243,.4301111582
.35061319e-1,.5341146265,.4746025530
.20744716e-1,.5465508352,.5189970147
.5893392e-2,.5583370796,.5633824009
-.9493911e-2,.5694718321,.6078464086
.123629700,.4686846856,.1630772355
.113210110,.4858577820,.2101014165
.102169134,.5022755709,.2564187820
.90532105e-1,.5179688482,.3021557265
.78319118e-1,.5329620373,.3474260956
.65545754e-1,.5472740781,.3923342334
.52223614e-1,.5609190737,.4369774586
.38360698e-1,.5739067455,.4814481378
.23961647e-1,.5862427354,.5258354965
.9027886e-2,.5979287770,.5702272664
.136384291,.4914611168,.1207464746
.126540889,.5093345794,.1685148890
.116048503,.5264191886,.2154510363
.104937932,.5427523845,.2616956286
.93233866e-1,.5583641766,.3073734410
.80955847e-1,.5732783186,.3525970857
.68118977e-1,.5875131669,.3974699841
.54734427e-1,.6010823013,.4420887871
.40809800e-1,.6139949623,.4865454123
.26349363e-1,.6262563371,.5309288331
.147497175,.5136425695,.7559877098e-1
.138289095,.5322882766,.1242820664
.128396889,.5501024161,.1719842274
.117858192,.5671307337,.2188650851
.106703315,.5834100751,.2650640297
.94956542e-1,.5989699556,.3107048279
.82637067e-1,.6138337074,.3558993254
.69759688e-1,.6280193175,.4007503695
.56335306e-1,.6415400347,.4453541983
.42371270e-1,.6544047941,.4898024555
.1567804748,.5350852461,.2723313209e-1
.1482809888,.5545922606,.7704695117e-1
.1390521608,.5732127482,.1256988611
.1291404338,.5910031601,.1733746869
.1185832048,.6080089523,.2202335761
.1074105918,.6242667347,.2664143959
.956467158e-1,.6398058267,.3120405156
.833106338e-1,.6546493918,.3572234758
.704170228e-1,.6688152705,.4020658988
.569766724e-1,.6823165791,.4466638595
.1639989042,.5556045371,-.2487378036e-1
.1563011052,.5760860162,.2634970504e-1
.1478148612,.5956091273,.7618571069e-1
.1385983694,.6142446091,.1248562684
.1286982493,.6320491294,.1725477421
.1181520393,.6490683157,.2194196836
.1069899734,.6653389181,.2656112709
.952362678e-1,.6808903727,.3112461103
.829100619e-1,.6957459426,.3564359216
.700261045e-1,.7099235559,.4012834622
.1688507942,.5749562270,-.8142184161e-1
.1620765787,.5965603385,-.2841640540e-1
.1544349018,.6171100350,.2291068403e-1
.1460003176,.6366959394,.7283360129e-1
.1368319258,.6553898882,.1215772121
.1269770452,.6732493973,.1693299893
.1164737685,.6903207699,.2162530861
.1053527816,.7066413048,.2624868989
.936386775e-1,.7222408951,.3081559650
.813509161e-1,.7371431953,.3533727153
.1709376211,.5928053362,-.1433772137
.1652526729,.6157334714,-.8807429860e-1
.1585912684,.6374747071,-.3484037378e-1
.1510519225,.6581487893,.1667722681e-1
.1427114213,.6778490533,.6675990012e-1
.1336305394,.6966493712,.1156377835
.1238578885,.7146088321,.1635032781
.1134325860,.7317749841,.2105205013
.1023861500,.7481861366,.2568321099
.907438647e-1,.7638730242,.3025643725
.1697118544,.6086710316,-.2121310107
.1653524629,.6332104047,-.1537810319
.1598595662,.6563719819,-.9805286373e-1
.1533691542,.6783210617,-.4446831678e-1
.1459845649,.6991832536,.7341280936e-2
.1377860716,.7190561303,.5766865171e-1
.1288370541,.7380167324,.1067521763
.1191881277,.7561265822,.1547903703
.1088799906,.7734351503,.2019519669
.979454392e-1,.7899823014,.2483831384
.1643797579,.6218205157,-.2898052048
.1617054844,.6484081788,-.2272439578
.1576568443,.6733252748,-.1681439184
.1524338333,.6968149036,-.1118085395
.1461827563,.7190548985,-.5772471610e-1
.1390140594,.7401795116,-.5500089727e-2
.1310131162,.7602925146,.4517471348e-1
.1222470914,.7794755468,.9455011644e-1
.1127694919,.7977936481,.1428335477
.1026232867,.8152990476,.1902004363
.148823978,.4386460503,.2777244752
.136917258,.4540115132,.3232312201
.124442340,.4686863212,.3683208672
.111412903,.4826871007,.4130942193
.97838835e-1,.4960258729,.4576460560
.83726553e-1,.5087104355,.5020670711
.69079192e-1,.5207446016,.5464455991
.53896707e-1,.5321283141,.5908692133
.38175865e-1,.5428576442,.6354262934
.21910151e-1,.5529246728,.6802076295
.164730316,.4627858719,.2403804727
.153298081,.4787280784,.2863058208
.141283441,.4939623628,.3317262136
.128703480,.5085094883,.3767489948
.115571133,.5223851802,.4214736750
.101895619,.5356006418,.4659941248
.87682724e-1,.5481629087,.5104004716
.72934984e-1,.5600750619,.5547807844
.57651757e-1,.5713363209,.5992226691
.41829205e-1,.5819420204,.6438148334
.179299377,.4865760303,.2008606481
.168379116,.5031405507,.2473073309
.156858235,.5189750071,.2931496977
.144757798,.5341050036,.3385038113
.132094233,.5485505070,.3834756849
.118879893,.5623265355,.4281638506
.105123468,.5754436486,.4726615049
.90830247e-1,.5879082773,.5170583584
.76002287e-1,.5997229210,.5614423140
.60638469e-1,.6108862202,.6059010411
.192409557,.5099294636,.1589339979
.182045614,.5271701979,.2060263898
.171057791,.5436525965,.2524002150
.159471927,.5594080642,.2981831356
.147308538,.5744615411,.3434899603
.134583577,.5888324168,.3884257569
.121308976,.6025351962,.4330883707
.107493036,.6155799689,.4775705244
.93140686e-1,.6279727247,.5219616516
.78253628e-1,.6397155342,.5663495493
.2039143888,.5327403749,.1143100690
.1941601708,.5507222414,.1622010572
.1837523368,.5679096254,.2092395805
.1727225918,.5843410663,.2555688126
.1610963768,.6000474876,.3013154133
.1488938738,.6150534216,.3465934301
.1361307448,.6293779030,.3915073586
.1228186598,.6430351197,.4361546279
.1089656808,.6560348705,.4806276786
.945765108e-1,.6683828710,.5250157787
.2136348662,.5548773673,.6661891793e-1
.2045560202,.5736801610,.1154999478
.1947852822,.5916419471,.1633680844
.1843617932,.6088103020,.2103875131
.1733170892,.6252235605,.2567009482
.1616764722,.6409124752,.3024346946
.1494600042,.6559014343,.3477025329
.1366832423,.6702093457,.3926087554
.1233577655,.6838502844,.4372506449
.1094915502,.6968339460,.4817205435
.2213483336,.5761731926,.1538125246e-1
.2130274656,.5958973214,.6549750228e-1
.2039648312,.6147198186,.1144036045
.1942093140,.6327001063,.1622927943
.1838002484,.6498859941,.2093298142
.1727693272,.6663160051,.2556578013
.1611419799,.6820210504,.3014033900
.1489383797,.6970256497,.3466806042
.1361741783,.7113488287,.3915939256
.1228610407,.7250047657,.4362407696
.2267717702,.5964088429,-.4003782361e-1
.2193157571,.6171842177,.1163643311e-1
.2110517651,.6369774799,.6185041227e-1
.2020419606,.6558641942,.1108386488
.1923360271,.6739047510,.1587968084
.1819739286,.6911477282,.2058914760
.1709878683,.7076322685,.2522671859
.1594036988,.7233897972,.2980516432
.1472419527,.7384452711,.3433596875
.1345185945,.7528180952,.3882964119
.2295354900,.6152876856,-.1005038236
.2230874109,.6372882221,-.4683168225e-1
.2157410692,.6581969044,.5050793976e-2
.2075776215,.6781123802,.5543920791e-1
.1986611052,.6971124876,.1045740227
.1890426393,.7152593631,.1526553035
.1787633191,.7326029586,.1998529465
.1678562608,.7491835277,.2463140100
.1563480730,.7650334129,.2921681254
.1442599273,.7801783492,.3375316046
.2291393691,.6323908673,-.1672419794
.2238992439,.6558596924,-.1109454356
.2176330229,.6780812807,-.5689349132e-1
.2104506909,.6991893192,-.4695340006e-2
.2024372902,.7192871799,.4595731536e-1
.1936597411,.7384562046,.9531411658e-1
.1841713649,.7567612063,.1435819149
.1740149848,.7742542378,.1909357084
.1632251069,.7909772417,.2375264346
.1518294848,.8069639524,.2834866901
.186059604,.4301661384,.3498582237
.173256358,.4444418585,.3947496321
.159904859,.4580511667,.4393812226
.146012918,.4710035574,.4838451472
.131584999,.4833044587,.5282305106
.116622358,.4949553954,.5726250074
.101123076,.5059540356,.6171164978
.85082003e-1,.5162941201,.6617945823
.68490604e-1,.5259652726,.7067522703
.51336687e-1,.5349526756,.7520878232
.203473430,.4550411997,.3146102880
.191105419,.4698459544,.3597712925
.178180589,.4839738868,.4045973551
.164709524,.4974378601,.4491842427
.150699280,.5102464529,.4936232903
.136153609,.5224042236,.5380031532
.121073065,.5339118482,.5824114306
.105455028,.5447661398,.6269362273
.89293619e-1,.5549599532,.6716677463
.72579524e-1,.5644819670,.7166999880
.219671546,.4796682468,.2774328631
.207768500,.4950381753,.3229426047
.195297156,.5097173277,.3680345839
.182271218,.5237223605,.4128096468
.168700598,.5370653232,.4573626043
.154591732,.5497540393,.5017841722
.139947779,.5617923469,.5461626934
.124768711,.5731802136,.5905857422
.109051318,.5839137351,.6351416874
.92789104e-1,.5939850190,.6799212995
.234554803,.5039788310,.2381517794
.223151154,.5199557851,.2841043509
.211164164,.5352236776,.3295465511
.198611127,.5498035307,.3745861641
.185505169,.5637112992,.4193230238
.171855680,.5769583951,.4638512285
.157668608,.5895520490,.5082610447
.142946641,.6014955297,.5526406050
.127689291,.6127882424,.5970775017
.111892875,.6234257111,.6416603522
.2480056168,.5278918936,.1965505630
.2371418818,.5445251232,.2430591398
.2256753298,.5604256180,.2889521066
.2136274878,.5756195439,.3343466003
.2010151818,.5901273546,.3793494440
.1878511238,.6039645003,.4240597625
.1741443248,.6171419351,.4685711632
.1599003798,.6296664602,.5129736069
.1451216398,.6415409316,.5573550939
.1298072778,.6527643450,.6018032508
.2598829142,.5513095503,.1523579683
.2496076112,.5686580277,.1995606516
.2387043842,.5852432538,.2460258970
.2271998792,.6010976153,.2918834285
.2151152992,.6162468859,.3372496334
.2024671912,.6307111783,.3822307645
.1892680172,.6445056404,.4269255321
.1755265622,.6576409510,.4714272547
.1612482102,.6701236524,.5158257169
.1464351032,.6819563512,.5602088490
.2700150956,.5741110518,.1052301263
.2603874486,.5922467680,.1532983980
.2500994446,.6095798076,.2004851554
.2391841026,.6261503067,.2469371898
.2276679506,.6419905117,.2927839289
.2155720926,.6571260747,.3381415273
.2029129921,.6715770048,.3831160673
.1897030331,.6853583577,.4278061333
.1759509321,.6984807270,.4723049549
.1616620064,.7109505766,.5167022665
.2781899180,.5961438643,.5472424835e-1
.2692838384,.6151566576,.1038755840
.2596751508,.6333154193,.1519707448
.2494050792,.6506702563,.1991800004
.2385068424,.6672615480,.2456506981
.2270071342,.6831217403,.2915126868
.2149271983,.6982766558,.3368824460
.2022836168,.7127464506,.3818663022
.1890888837,.7265463104,.4265630159
.1753518122,.7396869486,.4710659419
.2841394994,.6172099952,.2584450030e-3
.2760496435,.6372149234,.5077587521e-1
.2672013225,.6562979238,.1000190851
.2576467267,.6745224340,.1481914338
.2474277924,.6919394300,.1954652974
.2365783138,.7085899880,.2419896180
.2251254581,.7245071302,.2878954688
.2130908690,.7397171659,.3333002635
.2004914755,.7542406713,.3783110289
.1873400780,.7680932066,.4230270456
.2875171281,.6370441227,-.5895231567e-1
.2803685932,.6581932428,-.6688480614e-2
.2723860657,.6783286302,.4401912118e-1
.2636370725,.6975323651,.9342207143e-1
.2541753971,.7158698224,.1417286522
.2440442248,.7333934933,.1891149327
.2332783508,.7501456746,.2357326696
.2219057676,.7661603896,.2817150803
.2099488134,.7814647918,.3271812177
.1974250162,.7960801863,.3722393496
.221260035,.4201603417,.4198373392
.207604322,.4333998718,.4643636711
.193411074,.4459860197,.5087726393
.178682944,.4579220094,.5531523609
.163419407,.4692072017,.5975904314
.147616743,.4798370753,.6421754897
.131267926,.4898030911,.6869988369
.114362408,.4990924282,.7321561893
.96885785e-1,.5076875753,.7777496665
.78819306e-1,.5155657430,.8238901370
.240057465,.4456550095,.3863847120
.226807704,.4593879822,.4310577264
.213016301,.4724625796,.4755461403
.198688334,.4848849732,.5199394995
.183825650,.4966574102,.5643256423
.168426926,.5077782809,.6087922781
.152487625,.5182420705,.6534285598
.135999860,.5280391926,.6983267271
.118952150,.5371556910,.7435839086
.101329046,.5455727891,.7893041877
.257738997,.4709835195,.3511912457
.244919383,.4852393432,.3960736016
.231551796,.4988290967,.4406989269
.217643946,.5117621506,.4851592581
.203200202,.5240438157,.5295436354
.188221724,.5356755027,.5739397362
.172706500,.5466547652,.6184354494
.156649282,.5569752250,.6631204511
.140041431,.5666263802,.7080878787
.122870643,.5755932753,.7534361807
.274222196,.4960902373,.3141239893
.261860225,.5109023337,.3592891245
.248941301,.5250374453,.4041182598
.235476048,.5385084833,.4487072212
.221471559,.5513240704,.4931473796
.206931619,.5634888076,.5375274125
.191856817,.5750034116,.5819349202
.176244567,.5858647376,.6264579949
.160089026,.5960656834,.6711868079
.143380918,.6055949743,.7162153087
.2894105078,.5209108268,.2750185798
.2775378978,.5363177519,.3205533062
.2650961548,.5510328841,.3656647402
.2520991918,.5650731375,.4104541078
.2385571138,.5784507934,.4550164870
.2244765338,.5911738910,.4994427646
.2098607798,.6032464751,.5438213689
.1947099918,.6146687158,.5882398743
.1790211278,.6254369157,.6327865699
.1627878708,.6355433974,.6775520568
.3031897682,.5453695317,.2336710924
.2918436902,.5614164640,.2796791722
.2799123532,.5767520049,.3251659281
.2674134862,.5913977024,.3702400466
.2543605972,.6053699762,.4150020291
.2407634212,.6186806600,.4595464423
.2266282312,.6313373776,.5039638463
.2119580252,.6433437749,.5483425093
.1967526222,.6546996303,.5927700078
.1810086522,.6654008477,.6373347916
.3154234826,.5693754059,.1898267169
.3046482226,.5861161769,.2364338723
.2932666306,.6021199418,.2824076029
.2813009666,.6174137579,.3278667730
.2687686926,.6320188486,.3729195104
.2556830796,.6459513455,.4176659014
.2420536486,.6592228232,.4622002233
.2278864736,.6718406619,.5066128520
.2131843606,.6838082754,.5509919716
.1979469387,.6951252118,.5954251654
.3259462701,.5928169506,.1431636756
.3157955761,.6103168933,.1905247831
.3050111131,.6270464791,.2371215888
.2936206891,.6430395082,.2830868304
.2816464865,.6583229445,.3285391903
.2691058998,.6729179308,.3735866579
.2560121419,.6868405283,.4183292189
.2423746817,.7001022455,.4628610772
.2281995414,.7127104036,.5072725662
.2134894819,.7246683577,.5516518473
.3345545467,.6155542635,.9326973983e-1
.3250950228,.6338943362,.1415794533
.3149658812,.6514204758,.1889683587
.3042019407,.6681750073,.2355882778
.2928312129,.6841919776,.2815724790
.2808760524,.6994985599,.3270400539
.2683540010,.7141160764,.3720992995
.2552784029,.7280607467,.4168504277
.2416588448,.7413442247,.4613878053
.2275014602,.7539739651,.5058018630
.3409928533,.6374071351,.3960677609e-1
.3323090614,.6566901228,.8911577470e-1
.3229083120,.6751016368,.1375114815
.3128346241,.6926951824,.1849724499
.3021234623,.7095138664,.2316523171
.2908033658,.7255923802,.2776857462
.2788971339,.7409584359,.3231928882
.2664226907,.7556338211,.3682828452
.2533937176,.7696351655,.4130564247
.2398201079,.7829744943,.4576084098
