-.2980883948,.4268854704,-.5594506007
-.2914177972,.4717663406,-.4531883832
-.2895166923,.5108498089,-.3615606856
-.2908654889,.5459829640,-.2792363615
-.2946600287,.5781432764,-.2034144079
-.3004137269,.6079221981,-.1324030882
-.3078064003,.6357089160,-.6508395018e-1
-.3166150940,.6617744364,-.6680815472e-3
-.3266783039,.6863150697,.6142936652e-1
-.3196080212,.4185050202,-.7031269096
-.3037180071,.4745922549,-.5665632758
-.2966779498,.5199222092,-.4591301526
-.2945421628,.5592909386,-.3668066285
-.2957215198,.5946300506,-.2840143278
-.2993840343,.6269508412,-.2078544712
-.3050294666,.6568613620,-.1365879485
-.3123300138,.6847600610,-.6907026353e-1
-.3210580698,.7109235983,-.4496889148e-2
-.3980923181+.1548427730e-1*I,.3425883801+.1882141058e-1*I,-1.047197551+.5702030345e-1*I
-.3288987677,.4634669952,-.7199746680
-.3116231216,.5212384881,-.5787074837
-.3039349786,.5673562022,-.4692095887
-.3013934431,.6072181263,-.3756763249
-.3022821619,.6429105162,-.2920765216
-.3057193539,.6755051895,-.2153362782
-.3111806628,.7056395152,-.1436327247
-.3183249456,.7337281570,-.7577570425e-1
-.3861584457+.9886317350e-1*I,.3784151717+.1201699210*I,-1.047197551+.3566483873*I
-.4042000609+.3767522801e-1*I,.3932579153+.4579490031e-1*I,-1.047197551+.1383709106*I
-.3416534200,.5060570949,-.7457275461
-.3220980842,.5665995906,-.5966608837
-.3134097406,.6139330677,-.4839508382
-.3102567587,.6545382156,-.3885791161
-.3107130432,.6907562346,-.3037670018
-.3138176615,.7237551589,-.2261617775
-.3190087123,.7542179885,-.1538099858
-.3754567496+.1425553652*I,.4147412067+.1732785461*I,-1.047197551+.5036721163*I
-.3934983647+.1069656147*I,.4295839504+.1300185804*I,-1.047197551+.3845615893*I
-.4115399793+.5478930251e-1*I,.4444266935+.6659735799e-1*I,-1.047197551+.2005225021*I
-.3588900564,.5451962412,-.7836987531
-.3355703629,.6103143778,-.6216118865
-.3254015949,.6594473355,-.5040953338
-.3213762431,.7011128630,-.4060703611
-.3212271479,.7380667338,-.3195401954
-.3238716031,.7716249934,-.2407223290
-.3661048422+.1788961549*I,.4516141405+.2174514134*I,-1.047197551+.6188681741*I
-.3841464557+.1502478841*I,.4664568826+.1826289379*I,-1.047197551+.5286170137*I
-.4021880721+.1165574182*I,.4812996272+.1416775857*I,-1.047197551+.4172392789*I
-.4202296861+.7097500914e-1*I,.4961423699+.8627136818e-1*I,-1.047197551+.2586122792*I
-.3828626937,.5783352445,-.8416013751
-.3526931013,.6517795557,-.6554727837
-.3403269068,.7035835235,-.5307208542
-.3350775898,.7467368016,-.4289180991
-.3341021770,.7846950755,-.3400058847
-.3582462088+.2120445022*I,.4890921067+.2577438108*I,-1.047197551+.7179753509*I
-.3762878230+.1869728609*I,.5039348495+.2272687911*I,-1.047197551+.6435445314*I
-.3943294374+.1593594824*I,.5187775927+.1937042453*I,-1.047197551+.5577781253*I
-.4123710525+.1275643057*I,.5336203362+.1550566505*I,-1.047197551+.4542244601*I
-.4304126662+.8712332816e-1*I,.5484630786+.1058999332*I,-1.047197551+.3157306035*I
-.4229378150,.5943215344,-.9530440923
-.3745609174,.6898971446,-.7016299356
-.3587902395,.7458393211,-.5654699675
-.3518074494,.7910996667,-.4582186362
-.3520588235+.2436682487*I,.5272472175+.2961830293*I,-1.047197551+.8072203915*I
-.3701004375+.2208323797*I,.5420899599+.2684256299*I,-1.047197551+.7432902406*I
-.3881420508+.1964695363*I,.5569327021+.2388121666*I,-1.047197551+.6721235117*I
-.4061836652+.1699241919*I,.5717754453+.2065458350*I,-1.047197551+.5910584211*I
-.4242252802+.1399599836*I,.5866181887+.1701238143*I,-1.047197551+.4951896350*I
-.4422668953+.1036531576*I,.6014609322+.1259922307*I,-1.047197551+.3731834849*I
-.4603085105+.4837118053e-1*I,.6163036760+.5879601816e-1*I,-1.047197551+.1772914612*I
-.4033579890,.7223006755,-.7672496711
-.3817322529,.7853597776,-.6110416857
-.3477678806+.2746924019*I,.5661707140+.3338934315*I,-1.047197551+.8898990301*I
-.3658094951+.2534026069*I,.5810134571+.3080153124*I,-1.047197551+.8336718242*I
-.3838511087+.2311070344*I,.5958561993+.2809146530*I,-1.047197551+.7723835156*I
-.4018927229+.2074816978*I,.6106989429+.2521976426*I,-1.047197550+.7046735527*I
-.4199343384+.1820095116*I,.6255416861+.2212357530*I,-1.047197551+.6284205611*I
-.4379759528+.1537754337*I,.6403844298+.1869167366*I,-1.047197550+.5399566685*I
-.4560175674+.1208590909*I,.6552271729+.1469063446*I,-1.047197550+.4317603670*I
-.4740591829+.7750851193e-1*I,.6700699162+.9421295541e-1*I,-1.047197551+.2818312767*I
-.4457201296,.7412891728,-.8754669667
-.2034094072,.4599604942,-.3643051684
-.2046697842,.4952011267,-.2817368926
-.2083953672,.5274452560,-.2057386562
-.2140924834,.5572929545,-.1345941265
-.2214369874,.5851382230,-.6717131648e-1
-.2302035035,.6112550114,-.2673186678e-2
-.2402289446,.6358415534,.5949030033e-1
-.2513919768,.6590453347,.1197740850
-.2636006723,.6809780931,.1785413068
-.2088665732,.4695119978,-.4584903656
-.2067562140,.5088498214,-.3662423684
-.2079538829,.5441666749,-.2835007437
-.2116306423,.5764701524,-.2073774190
-.2172877424,.6063664901,-.1361384645
-.2245982094,.6342531311,-.6864221293e-1
-.2333349425,.6604061219,-.4085832853e-2
-.2433337283,.6850250630,.5812440465e-1
-.2544724575,.7082583849,.1184459116
-.2215228469,.4719051145,-.5729960871
-.2141422630,.5176489845,-.4644797475
-.2117923429,.5572779960,-.3715188308
-.2128179507,.5928039928,-.2883001041
-.2163610889,.6252698888,-.2118333294
-.2219088698,.6552991068,-.1403354929
-.2291264764,.6832986218,-.7263809778e-1
-.2377820392,.7095502761,-.7922287103e-2
-.2477082408,.7342574446,.5441586669e-1
-.2475531105,.4597472697,-.7292990603
-.2294755274,.5184935312,-.5852964442
-.2214263001,.5650501493,-.4746424011
-.2186619640,.6051828915,-.3804413401
-.2193923376,.6410677506,-.2963991103
-.2227073782,.6738109039,-.2193423027
-.2280692140,.7040661398,-.1474010828
-.2351292905,.7322571353,-.7935988592e-1
-.2436474398,.7586758174,-.1437192597e-1
-.3204541934+.4312435507e-1*I,.3924556823+.5241840981e-1*I,-1.047197551+.1582289061*I
-.2605343126,.5020619915,-.7558470774
-.2400252544,.5637637548,-.6034971580
-.2309421280,.6115770956,-.4895112182
-.2275527141,.6524696303,-.3934238279
-.2278435792,.6888887202,-.3081446286
-.2308218287,.7220412487,-.2302081914
-.2359106623,.7526283232,-.1576091704
-.2427404192,.7810992775,-.8905955516e-1
-.3097524990+.1091345612*I,.4287817195+.1326549728*I,-1.047197551+.3919862438*I
-.3277941132+.5870913857e-1*I,.4436244623+.7136198744e-1*I,-1.047197551+.2146591649*I
-.2781880168,.5406941853,-.7952966518
-.2536114172,.6073401139,-.6288287984
-.2429933589,.6570191927,-.5098421867
-.2387109040,.6989972331,-.4110288233
-.2383859989,.7361648038,-.3239953301
-.2408980088,.7698840538,-.2448251344
-.2456119843,.8009267758,-.1713100152
-.3004005912+.1518973666*I,.4656546524+.1846339128*I,-1.047197551+.5339272578*I
-.3184422046+.1185757219*I,.4804973947+.1441308692*I,-1.047197551+.4240629541*I
-.3364838202+.7408243144e-1*I,.4953401387+.9004849450e-1*I,-1.047197551+.2696732760*I
-.3031136282,.5726748334,-.8566212789
-.2709110588,.6485902628,-.6632888790
-.2580036378,.7010521006,-.5367383419
-.2524656712,.7445562400,-.4340359354
-.2512993164,.7827466064,-.3445675307
-.2531849072,.8172272797,-.2637117601
-.2925419570+.1883833630*I,.5031326185+.2289832812*I,-1.047197551+.6478190440*I
-.3105835712+.1609380958*I,.5179753612+.1956230777*I,-1.047197551+.5627874222*I
-.3286251856+.1294390356*I,.5328181043+.1573354175*I,-1.047197551+.4604674484*I
-.3466668007+.8971327039e-1*I,.5476608478+.1090480533*I,-1.047197551+.3248037958*I
-.3499806161,.5804054900,-.9929068900
-.2930746562,.6863483240,-.7104645209
-.2765909067,.7431572522,-.5718891277
-.2692693601,.7888293622,-.4635608543
-.2669564154,.8284134300,-.3707101659
-.2863545710+.2221012969*I,.5412877286+.2699680211*I,-1.047197551+.7469126001*I
-.3043961860+.1978345504*I,.5561304720+.2404713651*I,-1.047197551+.6761926115*I
-.3224378008+.1714311720*I,.5709732155+.2083775958*I,-1.047197551+.5957586916*I
-.3404794143+.1417017958*I,.5858159576+.1722410176*I,-1.047197551+.5008860645*I
-.3585210307+.1058808942*I,.6006587022+.1287000837*I,-1.047197551+.3808407977*I
-.3765626437+.5275172273e-1*I,.6155014441+.6412064403e-1*I,-1.047197551+.1931582661*I
-.3224609137,.7180356889,-.7781542247
-.2997235358,.7824460116,-.6180917023
-.2897703755,.8313168966,-.5012787924
-.123534959,.4765357191,-.2107087515
-.129110401,.5065313144,-.1392765462
-.136351487,.5345022902,-.7163011546e-1
-.145027561,.5607290110,-.6954689558e-2
-.154972097,.5854138962,.5535107460e-1
-.166061391,.6087073060,.1157496486
-.1782018139,.6307230518,.1746093817
-.1913217742,.6515481517,.2322329024
-.2053664769,.6712492116,.2888760766
-.1217623737,.4933797372,-.2860124323
-.1253693459,.5257680431,-.2097099335
-.1309693149,.5557338237,-.1383358553
-.1382312297,.5836794810,-.7073457741e-1
-.1469255073,.6098840772,-.6094931473e-2
-.1568863178,.6345491794,.5618212284e-1
-.1679904381,.6578245676,.1165575349
-.1801445829,.6798236347,.1753986011
-.1932774190,.7006330834,.2330072014
-.1240052404,.5068382842,-.3709512523
-.1250494455,.5423416736,-.2877841999
-.1286070020,.5747900453,-.2113545606
-.1341665647,.6048049403,-.1398846937
-.1413941705,.6327923007,-.7220901264e-1
-.1500584679,.6590333381,-.7510405583e-2
-.1599924762,.6837310185,.5481395044e-1
-.1710721826,.7070360830,.1152275247
-.1832037326,.7290626138,.1740993489
-.1316208058,.5153584647,-.4698731152
-.1290522154,.5552532736,-.3762588936
-.1299216587,.5909690921,-.2926053281
-.1333439582,.6235818688,-.2158265589
-.1387931265,.6537309516,-.1440940566
-.1459271236,.6818320945,-.7621459159e-1
-.1545097093,.7081724540,-.1135459797e-1
-.1643707307,.7329588513,.5109918032e-1
-.1753840003,.7563446711,.1116171564
-.1473547307,.5157160004,-.5919737953
-.1389325342,.5627259692,-.4801213966
-.1359405103,.6031354678,-.3852353881
-.1365099816,.6392159087,-.3007418134
-.1397013383,.6721094009,-.2233631256
-.1449627012,.7024867646,-.1511807481
-.1519378790,.7307809550,-.8295293388e-1
-.1603821210,.7572894733,-.1781743847e-1
-.1701197794,.7822258205,.4485710833e-1
-.1795154010,.4979451022,-.7663202298
-.1579824060,.5608914765,-.6104332042
-.1484905140,.6092016803,-.4951216070
-.1448592104,.6503882356,-.3982993628
-.1449818741,.6870117778,-.3125433789
-.1478321142,.7203199027,-.2342700325
-.1528176713,.7510325128,-.1614200846
-.1595605986,.7796090085,-.9267705519e-1
-.1678031947,.8063626310,-.2713496118e-1
-.2440482490+.6239346512e-1*I,.4428222327+.7584035098e-1*I,-1.047197551+.2279081181*I
-.1976395300,.5360054849,-.8074424900
-.1716878444,.6043228554,-.6361647990
-.1606028057,.6545695565,-.5156450092
-.1560568727,.6968678606,-.4160207935
-.1555530312,.7342529288,-.3284730648
-.1579307939,.7681353597,-.2489442764
-.1625375010,.7993084690,-.1751643350
-.1689633360,.8282703955,-.1057070081
-.2346963404+.1205655719*I,.4796951650+.1465495668*I,-1.047197551+.4307722322*I
-.2527379544+.7707300464e-1*I,.4945379078+.9368358866e-1*I,-1.047197551+.2802880240*I
-.2237163426,.5665868285,-.8729139900
-.1891741654,.6453460906,-.6712592192
-.1757007018,.6984959657,-.5428211888
-.1698661962,.7423605509,-.4391912720
-.1685052420,.7807874573,-.3491538813
-.1702477336,.8154420698,-.2679087447
-.1743509150,.8472272243,-.1928703349
-.2268377067+.1625053325*I,.5171731315+.1975280814*I,-1.047197551+.5677479902*I
-.2448793204+.1312918967*I,.5320158738+.1595876027*I,-1.047197551+.4666211722*I
-.2629209353+.9223748981e-1*I,.5468586172+.1121162862*I,-1.047197551+.3336219593*I
-.2809625498+.1478381750e-1*I,.5617013602+.1796998942e-1*I,-1.047197551+.5444349068e-1*I
-.2116541891,.6827195308,-.7195279138
-.1944163232,.7404451012,-.5783893671
-.1867454420,.7865418335,-.4689466404
-.1842146162,.8263907383,-.3754454182
-.1851109687,.8620738499,-.2918668986
-.52488339e-1,.4837923882,-.7834893097e-1
-.61027226e-1,.5101858631,-.1340222373e-1
-.70849252e-1,.5350196608,.4912106893e-1
-.81827054e-1,.5584485913,.1096951105
-.93864375e-1,.5805896593,.1686963067
-.106887663,.6015322670,.2264329702
-.120840600,.6213448689,.2831650336
-.135680445,.6400794200,.3391177260
-.151375543,.6577743950,.3944914857
-.45993284e-1,.5049648300,-.1430319847
-.53150950e-1,.5330372023,-.7520415626e-1
-.61754185e-1,.5593524624,-.1038504041e-1
-.71633642e-1,.5841164514,.5203596433e-1
-.82663686e-1,.6074818813,.1125275034
-.947492980e-1,.6295642503,.1714621774
-.1078178495,.6504518388,.2291456191
-.1218137396,.6702122312,.2858358425
-.1366948001,.6888966835,.3417566977
-.423491064e-1,.5240838006,-.2136954735
-.478509783e-1,.5541688227,-.1420885198
-.550296414e-1,.5822156715,-.7430643932e-1
-.636512010e-1,.6085086579,-.9523545440e-2
-.735470234e-1,.6332527542,.5286841197e-1
-.845919624e-1,.6566000801,.1133365220
-.966913484e-1,.6786657057,.1722523052
-.1097728160,.6995375944,.2299206399
-.1237809671,.7192830837,.2865989956
-.421522738e-1,.5405078405,-.2920870719
-.455891691e-1,.5731028767,-.2153460558
-.510502359e-1,.6032374965,-.1436419257
-.581943136e-1,.6313263876,-.7578445786e-1
-.667856922e-1,.6576560580,-.1094188131e-1
-.766545633e-1,.6824329136,.5149793412e-1
-.876749751e-1,.7058100523,.1120046488
-.997516803e-1,.7279032478,.1709515576
-.1128118814,.7488009865,.2286447854
-.463219546e-1,.5532165554,-.3810274340
-.470327436e-1,.5891252211,-.2969303602
-.503327058e-1,.6218867015,-.2198343863
-.556822797e-1,.6521568428,-.1478637924
-.627319865e-1,.6803604427,-.7979985130e-1
-.712411029e-1,.7067901038,-.1479390466e-1
-.810365784e-1,.7316561740,.4777686064e-1
-.919902434e-1,.7551144443,.1083891911
-.1040052639,.7772826190,.1674212628
-.564540675e-1,.5603831947,-.4856479353
-.532292677e-1,.6010756364,-.3900591044
-.536351991e-1,.6373548621,-.3051050000
-.567013009e-1,.6704006037,-.2273989714
-.618611689e-1,.7009013358,-.1549718776
-.687507430e-1,.7292995791,-.8655495960e-1
-.771205696e-1,.7558985497,-.2127010609e-1
-.867919803e-1,.7809154232,.4152403789e-1
-.976329806e-1,.8045106395,.1023164858
-.759708940e-1,.5579811085,-.6174738712
-.660553399e-1,.6068062813,-.5007835715
-.621764519e-1,.6482937806,-.4032064395
-.621280414e-1,.6851252654,-.3169636555
-.648485889e-1,.7185910342,-.2383475471
-.697297861e-1,.7494304954,-.1652429029
-.763851420e-1,.7781134364,-.9630384603e-1
-.845519115e-1,.8049592272,-.3060733046e-1
-.940429412e-1,.8301953555,.3251608598e-1
-.1172687121,.5311008231,-.8202242705
-.898014602e-1,.6012603918,-.6436264144
-.782304634e-1,.6520977850,-.5215056711
-.734143822e-1,.6947244553,-.4210471046
-.727283712e-1,.7323309584,-.3329738310
-.749700353e-1,.7663788163,-.2530800252
-.794683004e-1,.7976837378,-.1790311829
-.858037859e-1,.8267554875,-.1093680749
-.936945486e-1,.8539367700,-.4310254621e-1
-.1689920894+.7995984172e-1*I,.4937356774+.9719258980e-1*I,-1.047197551+.2905054706*I
-.1447793124,.5599393747,-.8908770504
-.1074852100,.6420436513,-.6793938498
-.934187796e-1,.6959142867,-.5489718232
-.872794434e-1,.7401493987,-.4443850809
-.857200990e-1,.7788174519,-.3537654426
-.873173922e-1,.8136485574,-.2721236332
-.913064380e-1,.8455724427,-.1967965292
-.972201494e-1,.8751568650,-.1261599488
.12185888e-1,.4846426210,.4088740730e-1
.1356395e-2,.5082518240,.1016983804
-.10544020e-1,.5305593048,.1608906714
-.23439135e-1,.5516577087,.2187803831
-.37270574e-1,.5716179937,.2756330192
-.51993945e-1,.5904941194,.3316778067
-.67576226e-1,.6083262260,.3871180206
-.83993989e-1,.6251427898,.4421387697
-.101232231,.6409620457,.4969131636
.22239151e-1,.5088008053,-.1684573472e-1
.12482891e-1,.5337145424,.4579536225e-1
.1564860e-2,.5572161268,.1064644120
-.10417251e-1,.5794243021,.1655422235
-.23388825e-1,.6004297699,.2233402231
-.37292718e-1,.6203019862,.2801205634
-.52085526e-1,.6390937100,.3361100685
-.67735047e-1,.6568440859,.3915103099
-.84218558e-1,.6735807307,.4465052303
.30045380e-1,.5315670018,-.7878692856e-1
.21515475e-1,.5579713936,-.1382236339e-1
.11701460e-1,.5828149290,.4871524070e-1
.730942e-3,.6062527144,.1093008277
-.112996480e-1,.6284019630,.1683113308
-.243166291e-1,.6493522366,.2260554442
-.382635839e-1,.6691721102,.2827933676
-.530976894e-1,.6879136371,.3387505237
-.687872251e-1,.7056153734,.3941274888
.352624851e-1,.5525978926,-.1458522863
.281677471e-1,.5807467575,-.7788701060e-1
.196193935e-1,.6071287256,-.1295911273e-1
.97889216e-2,.6319522566,.4954910140e-1
-.11965609e-2,.6553718532,.1101109860
-.132409785e-1,.6775042942,.1691023760
-.262709163e-1,.6984388181,.2268311924
-.402301632e-1,.7182437514,.2835570851
-.550760605e-1,.7369709448,.3395050764
.374227921e-1,.5714085734,-.2193521156
.320612008e-1,.6016641062,-.1474103108
.250013311e-1,.6298553529,-.7936866079e-1
.164833619e-1,.6562742539,-.1438034261e-1
.66799924e-2,.6811307288,.4817629580e-1
-.42808477e-2,.7045802765,.1087772311
-.163024968e-1,.7267403937,.1678001148
-.293111011e-1,.7477008495,.2255541362
-.432501102e-1,.7675303818,.2822998561
.358486898e-1,.5872722577,-.3012755555
.326726019e-1,.6201843101,-.2238570359
.274236252e-1,.6505767283,-.1516448557
.204589024e-1,.6788836286,-.8339399221e-1
.120237552e-1,.7054032007,-.1824028869e-1
.22941971e-2,.7303493945,.4444884383e-1
-.85995822e-2,.7538804565,.1051566259
-.205593059e-1,.7761158448,.1642656782
-.335099193e-1,.7971467896,.2220886967
.294715711e-1,.5990031571,-.3949131751
.292319016e-1,.6354844756,-.3094890537
.262926663e-1,.6686844265,-.2314500822
.212353372e-1,.6993097960,-.1587746350
.144320855e-1,.7278129670,-.9016608028e-1
.61371910e-2,.7545030168,-.2473001577e-1
-.34675899e-2,.7796008812,.3818514200e-1
-.142481660e-1,.8032695446,.9907513839e-1
-.261034834e-1,.8256318389,.1583311764
.163629315e-1,.6043903347,-.5064987513
.204953492e-1,.6461860039,-.4081458091
.207178015e-1,.6832290407,-.3214058657
.181286749e-1,.7168545539,-.2424409904
.133529451e-1,.7478222119,-.1690777951
.67859172e-2,.7766125183,-.9994005158e-1
-.13044850e-2,.8035511345,-.3408718042e-1
-.107278246e-1,.8288695425,.2916116512e-1
-.213441566e-1,.8527378465,.9031962443e-1
-.79542447e-2,.5981503200,-.6512207504
.41231104e-2,.6496031968,-.5274261564
.92163256e-2,.6925667302,-.4261085877
.100878517e-1,.7303987281,-.3374980970
.79841877e-2,.7646143310,-.2572326470
.35955641e-2,.7960525244,-.1829107272
-.26487603e-2,.8252350818,-.1130389987
-.104611406e-1,.8525116374,-.4660992929e-1
-.196387386e-1,.8781287489,.1709810357e-1
.71794149e-1,.4806111783,.1512643427
.59058006e-1,.5019028141,.2093486552
.45376993e-1,.5220459455,.2663550931
.30797594e-1,.5410970723,.3225180462
.15354558e-1,.5590984341,.3780444648
-.927204e-3,.5760803088,.4331219839
-.18031367e-1,.5920625408,.4879253092
-.35949408e-1,.6070554904,.5426215222
-.54680211e-1,.6210605126,.5973747824
.84740612e-1,.5070100042,.9845613152e-1
.72895949e-1,.5293852503,.1577272916
.60052963e-1,.5505470185,.2156802367
.46270883e-1,.5705673014,.2725827905
.31594782e-1,.5895008851,.3286658491
.16058245e-1,.6073885944,.3841338740
-.314816e-3,.6242594933,.4391727848
-.17508966e-1,.6401323443,.4939562028
-.35516512e-1,.6550164993,.5486506640
.95811647e-1,.5324053087,.4246391982e-1
.84953671e-1,.5559798910,.1032290821
.73026986e-1,.5782554374,.1623844149
.60107293e-1,.5993239666,.2202445117
.46252570e-1,.6192559503,.2770737886
.31506892e-1,.6381049609,.3331006943
.15903015e-1,.6559108179,.3885279526
-.535859e-3,.6727017206,.4435402934
-.177949328e-1,.6884956555,.4983105911
.104781392,.5565857794,-.1726674196e-1
.95033189e-1,.5815093100,.4538883676e-1
.84122477e-1,.6050197904,.1060695643
.721471226e-1,.6272361788,.1651567939
.591818758e-1,.6482493367,.2229623358
.452839805e-1,.6681288435,.2797486166
.304969222e-1,.6869275571,.3357426581
.148529725e-1,.7046847038,.3911461694
-.16250902e-2,.7214279719,.4461431903
.1113609038,.5792727010,-.8147640275e-1
.1028862514,.6057442550,-.1640171033e-1
.931214983e-1,.6306476680,.4622413166e-1
.821957513e-1,.6541398731,.1068808796
.702065155e-1,.6763393885,.1659487703
.572282707e-1,.6973367463,.2237388242
.433180518e-1,.7172012744,.2805129094
.285191788e-1,.7359856260,.3364976380
.128637829e-1,.7537288603,.3918944381
.1151677005,.6000847176,-.1511900031
.1081927310,.6283791617,-.8296172871e-1
.997486707e-1,.6548878995,-.1782587275e-1
.900111738e-1,.6798244433,.4484896526e-1
.791101849e-1,.7033467423,.1055452222
.671438068e-1,.7255740413,.1646449770
.541869639e-1,.7465974137,.2224605495
.402970347e-1,.7664866037,.2792547332
.255176137e-1,.7852945999,.3352548097
.1156718982,.6184746108,-.2278947458
.1105245428,.6489905544,-.1554374009
.1036455114,.6774016129,-.8699712798e-1
.952848423e-1,.7040117143,-.2169383882e-1
.856215787e-1,.7290384901,.4111506139e-1
.747879699e-1,.7526426907,.1019194061
.628837603e-1,.7749455583,.1611063502
.499850953e-1,.7960396466,.2189917753
.361502932e-1,.8159958442,.2758410306
.1120912079,.6336046192,-.3138943506
.1092804926,.6669607866,-.2355166967
.1043267691,.6977120925,-.1625891745
.976105727e-1,.7263210792,-.9378641248e-1
.893911345e-1,.7531028494,-.2819724713e-1
.798533726e-1,.7782821746,.3484035580e-1
.691335137e-1,.8020246408,.9582903512e-1
.573341283e-1,.8244549221,.1551646953
.445334509e-1,.8456681172,.2131693778
.1031559733,.6440646469,-.4131182222
.1035555338,.6813229594,-.3258704242
.1010996022,.7151103743,-.2465506140
.964304718e-1,.7462076064,-.1729249249
.899525438e-1,.7751062137,-.1035857918
.819390587e-1,.8021383243,-.3757459857e-1
.725838144e-1,.8275395034,.2580016399e-1
.620290110e-1,.8514825970,.8706043358e-1
.503814374e-1,.8740974088,.1466152651
.127128003,.4726048442,.2553931810
.112719457,.4918636455,.3117025281
.97441364e-1,.5100654986,.3673370129
.81320425e-1,.5272428562,.4224874663
.64374552e-1,.5434174923,.4773306568
.46613737e-1,.5586015527,.5320347632
.28040515e-1,.5727981175,.5867641579
.8650078e-2,.5860013440,.6416839036
-.11569942e-1,.5981961970,.6969642930
.142541750,.5007819711,.2062390889
.128910502,.5209855915,.2632975013
.114378675,.5400945436,.3195005466
.98981599e-1,.5581517704,.3750564294
.82744679e-1,.5751881509,.4301536530
.65684680e-1,.5912240651,.4849674792
.47810534e-1,.6062703695,.5396652783
.29123752e-1,.6203289009,.5944112527
.9618494e-2,.6333925589,.6493709151
.156333005,.5282076562,.1545600733
.143542321,.5494329976,.2125770293
.129809732,.5695134376,.2695301730
.115180999,.5885045983,.3256520988
.99690275e-1,.6064479944,.3811484751
.83361961e-1,.6233732833,.4362060542
.66211925e-1,.6392997565,.4909989814
.48248269e-1,.6542372598,.5456940530
.29471696e-1,.6681866479,.6004553975
.168339366,.5547398665,.9998906467e-1
.156468327,.5770830516,.1592228341
.143600683,.5982148470,.2171457977
.129795259,.6182067539,.2740246755
.115096805,.6371131675,.3300895729
.99538640e-1,.6549745875,.3855443863
.83144446e-1,.6718198000,.4405746506
.659294545e-1,.6876673177,.4953537433
.479011666e-1,.7025262599,.5500480825
.178361532,.5801995717,.4205669065e-1
.167510909,.6037830917,.1028336649
.1555910072,.6260668840,.1619985283
.1426776613,.6471431282,.2198662608
.1288289522,.6670824212,.2767015589
.1140890354,.6859384355,.3327330719
.984907375e-1,.7037510734,.3881636667
.820573175e-1,.7205486055,.4431781691
.648036256e-1,.7363490826,.4979495151
.1861493528,.6043552153,-.1985143006e-1
.1764506922,.6293389658,.4289343235e-1
.1655849635,.6529041235,.1036461482
.1536511252,.6751709764,.1627914447
.1407247392,.6962313695,.2206434974
.1268636748,.7161556449,.2774664329
.1121119190,.7349972688,.3334884870
.965021587e-1,.7527959736,.3889122345
.800575316e-1,.7695798833,.4439223027
.1913798569,.6268977720,-.8656377920e-1
.1830102129,.6534969648,-.2127855742e-1
.1733389646,.6785140355,.4151588002e-1
.1624981120,.7021094308,.1023085647
.1505872219,.7244041769,.1614861010
.1376823070,.7454906684,.2193639880
.1238415847,.7654396702,.2762072975
.1091093201,.7843049860,.3322449421
.935184305e-1,.8021266288,.3876799785
.1936204290,.6473982620,-.1592415949
.1868278092,.6759143556,-.9060937443e-1
.1785421353,.7026156158,-.2515464024e-1
.1689455491,.7277234396,.3777544779e-1
.1581724003,.7514011299,.9867747790e-1
.1463239264,.7737717450,.1579432298
.1334773790,.7949291832,.2158918348
.1196919278,.8149453680,.2727909625
.1050125986,.8338750280,.3288713912
.1922621086,.6652295982,-.2395990586
.1874130819,.6961081623,-.1664156730
.1807846867,.7248238746,-.9741607311e-1
.1726412401,.7516980117,-.3167190096e-1
.1631708907,.7769592800,.3148960989e-1
.1525120466,.8007759103,.9257811991e-1
.1407688202,.8232744546,.1519943385
.1280205855,.8445513942,.2100636669
.1143281422,.8646806311,.2670582418
.178702696,.4612012764,.3550511361
.162766777,.4786035293,.4102932454
.146002660,.4949990931,.4651898227
.128422040,.5104021834,.5199105200
.110029083,.5248178637,.5746201620
.90820616e-1,.5382422780,.6294832717
.70785985e-1,.5506624741,.6846685774
.49906552e-1,.5620557999,.7403538370
.28154801e-1,.5723888068,.7967313966
.196291472,.4908500971,.3086781306
.181059611,.5091081446,.3643440571
.164983694,.5263402278,.4195160524
.148082084,.5425686662,.4743714955
.130365185,.5578061070,.5290789028
.111835929,.5720561136,.5838027374
.92489908e-1,.5853133282,.6387079089
.72315173e-1,.5975632266,.6939643072
.51291675e-1,.6087814386,.7497517231
.212441383,.5199220433,.2602374172
.197957231,.5390889455,.3164811607
.182606189,.5572021269,.3720670566
.166414159,.5742930727,.4271844955
.149398350,.5903827007,.4820093113
.131568104,.6054823654,.5367091751
.112925327,.6195943851,.5914483456
.93464579e-1,.6327121475,.6463921511
.73172824e-1,.6448198057,.7017115530
.227028930,.5483156364,.2094707238
.213345965,.5684563954,.2664751346
.198764700,.5875052534,.3226365249
.183319861,.6055044229,.3781617974
.167036338,.6224841579,.4332385529
.149930441,.6384642820,.4880414754
.132010676,.6534551363,.5427376362
.113278144,.6674580564,.5974911926
.93726584e-1,.6804654347,.6524678649
.239906760,.5759071317,.1560574364
.227091336,.5971024009,.2140440417
.213335341,.6171543893,.2709731907
.198684208,.6361183234,.3270766732
.183171824,.6540353905,.3825595829
.166822355,.6709349668,.4376082759
.1496514676,.6868360937,.4923966483
.1316670684,.7017483835,.5470913721
.1128696743,.7156724634,.6018565653
.250896223,.6025426037,.9959307250e-1
.2390319937,.6248940674,.1588364840
.2261707173,.6460336027,.2167671769
.2123713225,.6660328386,.2736521588
.1976786422,.6849462699,.3297217355
.1821260644,.7028144807,.3851799506
.1657373304,.7196663293,.4402124385
.1485277232,.7355203924,.4949926385
.1305047950,.7503858491,.5496869987
.2597764846,.6280261283,.3955693654e-1
.2489710607,.6516645883,.1004067387
.2370928399,.6739990445,.1596303518
.2242184808,.6951226777,.2175451725
.2104066985,.7151068561,.2744176231
.1957021550,.7340058678,.3304775928
.1801380975,.7518601249,.3859288256
.1637381454,.7686983378,.4409567525
.1465174733,.7845389510,.4957346850
.2662679637,.6521014217,-.2473848246e-1
.2566633467,.6771994837,.3817697046e-1
.2458829191,.7008683258,.9906720362e-1
.2340277375,.7232307877,.1583234393
.2211749199,.7443806041,.2162644126
.2073835330,.7643895739,.2731575134
.1926985205,.7833123259,.3292333181
.1771533620,.8011895552,.3846960626
.1607718773,.8180502157,.4397315144
.2700057633,.6744218185,-.9423084074e-1
.2617956113,.7012148765,-.2862277659e-1
.2522660919,.7264042198,.3442993475e-1
.2415536960,.7501557581,.9543079050e-1
.2297611823,.7725943926,.1547762759
.2169669244,.7938153897,.2127888391
.2032309552,.8138917207,.2697385103
.1885989874,.8328789493,.3258577648
.1731051362,.8508185436,.3813521897
.226865144,.4467793436,.4515543639
.209486996,.4624285412,.5063033085
.191296161,.4770899046,.5610003904
.172291294,.4907617975,.6158097915
.152463633,.5034335700,.6708987618
.131796595,.5150850648,.7264423281
.110264982,.5256856536,.7826286321
.87833705e-1,.5351926864,.8396653550
.64455874e-1,.5435491639,.8977879128
.246420145,.4776888664,.4073178743
.229700423,.4941383928,.4622287256
.212163761,.5095949149,.5169546922
.193814725,.5240639819,.5716607424
.174650539,.5375422205,.6265113023
.154660962,.5500171813,.6816747530
.133827809,.5614667599,.7373282316
.112124071,.5718581290,.7936631361
.89512538e-1,.5811460553,.8508918358
.264675394,.5081477964,.3613496631
.248644553,.5254346700,.4165437162
.231787236,.5417169472,.4714119031
.214114261,.5570077788,.5261230907
.195628958,.5713112115,.5808418449
.176327319,.5846223720,.6357329372
.156197811,.5969272449,.6909658684
.135220845,.6082020175,.7467197563
.113367816,.6184119192,.8031890041
.281533257,.5380802722,.3134598578
.266228324,.5562495000,.3690763192
.250081235,.5733950719,.4242144861
.233109643,.5895384466,.4790507791
.215323301,.6046914784,.5337531868
.196724513,.6188569674,.5884860359
.177308239,.6320287875,.6434144812
.157061865,.6441916067,.6987090600
.135964610,.6553201657,.7545506585
.296879577,.5673961665,.2634176402
.282345880,.5865028451,.3196190995
.266946998,.6045578759,.3751738148
.250708315,.6215921146,.4302702547
.233646581,.6376259196,.4850836592
.215770711,.6526701284,.5397813870
.197082200,.6667265585,.5945276386
.177575193,.6797880905,.6494879342
.1572362093,.6918383418,.7048336957
.310579245,.5959866200,.2109392062
.296872811,.6160988506,.2679193017
.282269098,.6351204250,.3240619664
.266802565,.6530932242,.3795735142
.250497867,.6700472198,.4346411428
.2333711060,.6860019839,.4894392806
.2154305973,.7009676231,.5441348669
.1966772527,.7149452459,.5988920437
.1771046228,.7279270134,.6538766305
.3224700717,.6237177156,.1556706172
.3096610362,.6449207504,.2136650475
.2959110862,.6649800872,.2706003825
.2812657396,.6839510535,.3267086172
.2657589508,.7018749216,.3821949940
.2494149469,.7187811409,.4372459730
.2322494465,.7346888164,.4920355119
.2142704073,.7496076210,.5467303150
.1954783935,.7635382407,.6014945033
.3323540298,.6504212506,.9716259537e-1
.3205316489,.6728235810,.1564654482
.3077094872,.6940106614,.2144438114
.2939471169,.7140549006,.2713664463
.2792898827,.7330114175,.3274649239
.2637715964,.7509213107,.3829441834
.2474163635,.7678138803,.4379904739
.2302397925,.7837080993,.4927776234
.2122497393,.7986135162,.5474722708
.3399843016,.6758807665,.3483217007e-1
.3292645917,.6996234131,.9582109076e-1
.3174653431,.7220538614,.1551569482
.3046647941,.7432672116,.2131617860
.2909228732,.7633363085,.2701053499
.2762852105,.7823166144,.3262199077
.2607858522,.8002495149,.3817109026
.2444491051,.8171645547,.4367649271
.2272907584,.8330809255,.4915560259
