-.2835484963,.4332211482,-.5302759620
-.2783203375,.4763487104,-.4285390196
-.2773589801,.5142898980,-.3396676682
-.2793960376,.5485864622,-.2592223084
-.2837318555,.5800888391,-.1847684497
-.2899323431,.6093246809,-.1147960477
-.2977070760,.6366469983,-.4828812198e-1
-.3068514810,.6623044560,.1548273355e-1
-.3172161699,.6864786375,.7706179395e-1
-.3036777012,.4276279418,-.6656682372
-.2906028184,.4802933351,-.5385599575
-.2849765551,.5239047983,-.4355817256
-.2837520909,.5621657989,-.3459436379
-.2855948813,.5966984985,-.2649715694
-.2897771107,.6283875661,-.1901323796
-.2958503463,.6577780845,-.1198664490
-.3035159572,.6852330424,-.5312885389e-1
-.3125642657,.7110073064,.1082485165e-1
-.3548576766,.3866533042,-.9052845935
-.3152178323,.4716088692,-.6853934124
-.3007038572,.5260235053,-.5534695663
-.2943383599,.5705335187,-.4481707772
-.2926329050,.6093791733,-.3571209379
-.2941237071,.6443397178,-.2751872062
-.2980292713,.6763650795,-.1996481459
-.3038742307,.7060330698,-.1288509161
-.3113446989,.7337252271,-.6169855692e-1
-.3833822092+.9146561851e-1*I,.3758528936+.1111780634*I,-1.047197550+.3309281140*I
-.4014238240+.9171220610e-2*I,.3906956363+.1114777948e-1*I,-1.047197551+.3378457214e-1*I
-.3313909069,.5125945195,-.7167069370
-.3143902666,.5700317378,-.5763756291
-.3068282957,.6159960876,-.4672807658
-.3043651632,.6557627087,-.3739819179
-.3053098132,.6913871132,-.2905379750
-.3087902550,.7239292173,-.2139094888
-.3142868418,.7540206620,-.1422899625
-.3753632181+.1395802244*I,.4124602348+.1696622105*I,-1.047197551+.4939456870*I
-.3934048329+.1031648220*I,.4273029782+.1253986502*I,-1.047197551+.3715021352*I
-.4114464485+.4737019788e-1*I,.4421457222+.5757930620e-1*I,-1.047197551+.1736594438*I
-.3538937873,.5488746328,-.7649404758
-.3324978959,.6116543564,-.6095277625
-.3230598437,.6598991162,-.4943910332
-.3194602307,.7010471518,-.3976652137
-.3196048712,.7376439810,-.3119716296
-.3224718089,.7709318100,-.2337423089
-.3694742178+.1791754940*I,.4499305920+.2177909550*I,-1.047197551+.6197273040*I
-.3875158301+.1505652172*I,.4647733333+.1830146618*I,-1.047197551+.5296396819*I
-.4055574453+.1169466720*I,.4796160770+.1421507306*I,-1.047197551+.4185567450*I
-.4235990594+.7158057119e-1*I,.4944588198+.8700743946e-1*I,-1.047197551+.2607702713*I
-.3869748333,.5757488523,-.8443961273
-.3564356322,.6496424282,-.6569598876
-.3439674975,.7015703069,-.5318696577
-.3386634300,.7447901361,-.4298965032
-.3376516844,.7827925726,-.3408786191
-.3661043431+.2157152650*I,.4884216276+.2622056873*I,-1.047197551+.7285981696*I
-.3841459576+.1909492349*I,.5032643707+.2321021435*I,-1.047197551+.6555682431*I
-.4021875719+.1638009744*I,.5181071135+.1991029567*I,-1.047197551+.5718393952*I
-.4202291860+.1328176274*I,.5329498562+.1614421552*I,-1.047197551+.4716760876*I
-.4382708018+.9429156053e-1*I,.5477926003+.1146130453*I,-1.047197551+.3407793048*I
-.4563124156+.2412238799e-1*I,.5626353428+.2932118561e-1*I,-1.047197551+.8876138575e-1*I
-.3889929986,.6812359185,-.7272578247
-.3710931857,.7397660956,-.5838623910
-.3631231269,.7862264848,-.4734621747
-.3658066186+.2513838110*I,.5281574149+.3055614305*I,-1.047197551+.8282248751*I
-.3838482327+.2289808093*I,.5430001578+.2783301891*I,-1.047197551+.7664073788*I
-.4018898472+.2052101738*I,.5578429009+.2494365648*I,-1.047197551+.6980110763*I
-.4199314611+.1795294802*I,.5726856434+.2182212314*I,-1.047197551+.6208154326*I
-.4379730762+.1509671036*I,.5875283871+.1835031618*I,-1.047197551+.5309341117*I
-.4560146905+.1174389757*I,.6023711299+.1427491343*I,-1.047197551+.4202220095*I
-.4740563055+.7234205797e-1*I,.6172138735+.8793304002e-1*I,-1.047197551+.2634822340*I
-.4383898958,.6973396606,-.8479976798
-.4073686078,.7718192234,-.6588544499
-.3694149562+.2876005301*I,.5694758301+.3495834876*I,-1.047197551+.9229317990*I
-.3874565721+.2668245946*I,.5843185745+.3243299738*I,-1.047197551+.8693761755*I
-.4054981872+.2451882504*I,.5991613179+.2980306179*I,-1.047197551+.8113819133*I
-.4235398009+.2224405694*I,.6140040604+.2703804127*I,-1.047197551+.7478797112*I
-.4415814158+.1981992661*I,.6288468038+.2409146836*I,-1.047197551+.6772781800*I
-.4596230303+.1718333655*I,.6436895470+.2088664690*I,-1.047197551+.5970111439*I
-.4776646452+.1421656631*I,.6585322903+.1728048565*I,-1.047197551+.5024005749*I
-.4957062598+.1064709360*I,.6733750335+.1294172897*I,-1.047197551+.3828653767*I
-.5137478745+.5386704590e-1*I,.6882177768+.6547633890e-1*I,-1.047197551+.1971905817*I
-.1920113558,.4632344192,-.3438762576
-.1939184035,.4976890120,-.2630787331
-.1981513651,.5293164143,-.1883670755
-.2042665918,.5586558903,-.1181982194
-.2119681848,.5860671120,-.5153653450e-1
-.2210481615,.6118028827,.1235675370e-1
-.2313548737,.6360475353,.7403428676e-1
-.2427749140,.6589389180,.1339258958
-.2552220989,.6805817886,.1923773163
-.1974051140,.4734099806,-.4354365593
-.1961861157,.5116643371,-.3458144409
-.1980329291,.5461921437,-.2648533164
-.2022183329,.5778773538,-.1900221112
-.2082941945,.6072646798,-.1197622584
-.2159620551,.6347169033,-.5302941444e-1
-.2250123432,.6604887621,.1092051204e-1
-.2352923584,.6847658650,.7264358548e-1
-.2466879608,.7076869524,.1325719509
-.2101153978,.4768346072,-.5467951219
-.2040845224,.5209378813,-.4425492153
-.2025955744,.5595203672,-.3521364282
-.2042443102,.5942889429,-.2706353378
-.2082737525,.6261637261,-.1954105564
-.2142207726,.6557076611,-.1248516125
-.2217783906,.6832938862,-.5788512263e-1
-.2307317639,.7091835464,.6250636197e-2
-.2409247134,.7335664790,.6812308447e-1
-.2356785261,.4669976934,-.6968122069
-.2202878605,.5224779586,-.5619360630
-.2134889875,.5675147485,-.4552678340
-.2115061236,.6066975976,-.3633980492
-.2127957796,.6419026398,-.2809106190
-.2165441824,.6741190330,-.2049707654
-.2222600143,.7039439805,-.1338703417
-.2296204462,.7317698888,-.6648184551e-1
-.2384009053,.7578697294,-.2010938852e-2
-.3189797805+.2592464514e-1*I,.3896152163+.3151186078e-1*I,-1.047197551+.9537367472e-1*I
-.2521613943,.5076067789,-.7292019161
-.2340923001,.5663427216,-.5852283050
-.2260468417,.6128947601,-.4745863466
-.2232848193,.6530246889,-.3803922355
-.2240168327,.6889075554,-.2963545950
-.2273331360,.7216491728,-.2193010689
-.2326959990,.7519031610,-.1473623070
-.2397569441,.7800931003,-.7932301505e-1
-.3109607904+.1061676016*I,.4262225590+.1290485816*I,-1.047197551+.3818247483*I
-.3290024050+.5329580247e-1*I,.4410653022+.6478198248e-1*I,-1.047197551+.1951257118*I
-.2752800974,.5431383512,-.7796040720
-.2523915813,.6077323856,-.6190164708
-.2423820019,.6566718470,-.5020195543
-.2384485958,.6982256138,-.4042758319
-.2383626626,.7351027084,-.3179260239
-.2410548318,.7686029720,-.2392347256
-.2459132307,.7994701448,-.1660742893
-.3050717868+.1527799889*I,.4636929136+.1857067557*I,-1.047197551+.5367630799*I
-.3231134015+.1196507082*I,.4785356568+.1454375340*I,-1.047197551+.4276897942*I
-.3411550160+.7570649292e-1*I,.4933783999+.9202256974e-1*I,-1.047197551+.2754414757*I
-.3100770638,.5679268378,-.8652156513
-.2766583133,.6453205573,-.6675611543
-.2634492886,.6981490006,-.5400057061
-.2577526399,.7418460185,-.4368073868
-.2564819552,.7801632002,-.3470341997
-.2582907439,.8147372282,-.2659696474
-.3017019127+.1928207854*I,.5021839496+.2343770459*I,-1.047197551+.6611988233*I
-.3197435282+.1658822796*I,.5170266933+.2016328196*I,-1.047197551+.5783937101*I
-.3377851430+.1352576078*I,.5318694367+.1644079942*I,-1.047197551+.4797367004*I
-.3558267576+.9753422214e-1*I,.5467121799+.1185545574*I,-1.047197551+.3520440251*I
-.3738683721+.3423218651e-1*I,.5615549230+.4160982300e-1*I,-1.047197551+.1257951019*I
-.3098817885,.6761043796,-.7401667262
-.2908361985,.7360272704,-.5928501808
-.2823645135,.7830973941,-.4808384628
-.2793424651,.8235433887,-.3858619441
-.3014041889+.2306527516*I,.5419197376+.2803624644*I,-1.047197551+.7711086118*I
-.3194458019+.2069966762*I,.5567624799+.2516080903*I,-1.047197550+.7032532194*I
-.3374874181+.1814804920*I,.5716052238+.2205927205*I,-1.047197551+.6268009889*I
-.3555290322+.1531774425*I,.5864479666+.1861898674*I,-1.047197551+.5380387926*I
-.3735706468+.1201336860*I,.6012907098+.1460246021*I,-1.047197551+.4293175643*I
-.3916122616+.7642964218e-1*I,.6161334530+.9290157029e-1*I,-1.047197551+.2780070309*I
-.3616069401,.6893780897,-.8692325989
-.3276060694,.7674793867,-.6695062095
-.3142583530,.8204764120,-.5414880439
-.114398720,.4782873622,-.1953996494
-.120346002,.5078309786,-.1248413158
-.127903843,.5354169313,-.5787530301e-1
-.136857413,.5613063528,.6260077884e-2
-.147050540,.5856890711,.6813222261e-1
-.158366669,.6087067596,.1281809010
-.1707173322,.6304669539,.1867587491
-.1840348176,.6510519589,.2441572795
-.1982673537,.6705247039,.3006243863
-.1125636884,.4952844918,-.2687316540
-.1166446509,.5270966515,-.1936371455
-.1226341897,.5565889052,-.1231771154
-.1302281609,.5841309430,-.5628785366e-1
-.1392134730,.6099817798,.7786499929e-2
-.1494351018,.6343298526,.6960960092e-1
-.1607772907,.6573158657,.1296186980
-.1731521478,.6790466523,.1881646795
-.1864923974,.6996039869,.2455378168
-.1150292601,.5090193163,-.3520062771
-.1166820987,.5437829047,-.2705164020
-.1207147649,.5756537700,-.1952997780
-.1266644442,.6051944722,-.1247470276
-.1342243350,.6327779345,-.5778537180e-1
-.1431797045,.6586651678,.6346543597e-2
-.1533744464,.6830459221,.6821590427e-1
-.1646920527,.7060618154,.1282623358
-.1770440870,.7278203434,.1868383753
-.1232159047,.5179425042,-.4495876799
-.1214554328,.5568550305,-.3583755581
-.1229062342,.5918641985,-.2763319486
-.1267804900,.6239276150,-.2007132325
-.1325996941,.6536269121,-.1298556789
-.1400481948,.6813457719,-.6265630573e-1
-.1489058129,.7073518229,.1664481269e-2
-.1590128639,.7318391676,.6368557940e-1
-.1702503606,.7549524355,.1238544645
-.1399142597,.5188808766,-.5705407424
-.1326643780,.5644658794,-.4624406059
-.1303964017,.6039952846,-.3697238882
-.1314807494,.6394498833,-.2866682734
-.1350694477,.6718603996,-.2103187884
-.1406544702,.7018443493,-.1389092954
-.1479036908,.7298054362,-.7128050756e-1
-.1565868738,.7560235175,-.6619059075e-2
-.1665377644,.7807006776,.5567548870e-1
-.1730728608,.5024476783,-.7421903197
-.1538429270,.5625946404,-.5942412578
-.1452924303,.6097605622,-.4819756726
-.1422226568,.6502645673,-.3868551984
-.1427373963,.6864115347,-.3022076998
-.1458867827,.7193560427,-.2247194793
-.1511141081,.7497747784,-.1524551593
-.1580605602,.7781038863,-.8416399042e-1
-.1664798187,.8046427718,-.1897844251e-1
-.2465583610+.5864541074e-1*I,.4399848818+.7128452512e-1*I,-1.047197551+.2144296643*I
-.1968999635,.5371181764,-.7950976679
-.1723453822,.6037373428,-.6287066876
-.1617350084,.6534070800,-.5097452637
-.1574569210,.6953798124,-.4109453143
-.1571349926,.7325437640,-.3239203615
-.1596492405,.7662602940,-.2447561303
-.1643650067,.7973008394,-.1712454220
-.1708818928,.8261520924,-.1019944660
-.2406693569+.1223045169*I,.4774552359+.1486632849*I,-1.047197551+.4366206039*I
-.2587109715+.7963355470e-1*I,.4922979791+.9679598222e-1*I,-1.047197551+.2893520952*I
-.2339183143,.5592065318,-.8887137600
-.1969655834,.6408958655,-.6784519152
-.1829686215,.6946820611,-.5482626681
-.1768646916,.7388741366,-.4437872335
-.1753283044,.7775142846,-.3532350829
-.1769423640,.8123250094,-.2716391610
-.1809445713,.8442328978,-.1963454094
-.2372994840+.1679447436*I,.5159462729+.2041397808*I,-1.047197551+.5848666674*I
-.2553410990+.1376628266*I,.5307890164+.1673315798*I,-1.047197551+.4876542153*I
-.2733827140+.1006840843*I,.5456317599+.1223832700*I,-1.047197551+.3629454450*I
-.2914243280+.4200155248e-1*I,.5604745025+.5105362356e-1*I,-1.047197551+.1541419372*I
-.2309267147,.6707830544,-.7536240503
-.2106301129,.7322265722,-.6020064979
-.2016337467,.7799344552,-.4883013333
-.1982960554,.8207641197,-.3923707282
-.1986230225,.8571393276,-.3071936206
-.45408687e-1,.4846789985,-.6711344245e-1
-.54176374e-1,.5107943624,-.2617603245e-2
-.64202863e-1,.5353796309,.5954404938e-1
-.75366851e-1,.5585822509,.1198263537
-.87576432e-1,.5805139329,.1785923817
-.100761310,.6012601246,.2361410395
-.114867695,.6208862083,.2927255215
-.129854879,.6394416656,.3485662213
-.145692908,.6569629053,.4038601638
-.38724906e-1,.5057502515,-.1298453419
-.46173632e-1,.5334688355,-.6264645498e-1
-.55031449e-1,.5594746460,.1673948531e-2
-.65138677e-1,.5839617747,.6369473760e-1
-.76376336e-1,.6070748450,.1238633729
-.886541972e-1,.6289235314,.1825378261
-.1019032243,.6495917493,.2400133908
-.1160706098,.6691436860,.2965406688
-.1311164394,.6876278580,.3523381996
-.351479853e-1,.5248646773,-.1989315448
-.410102498e-1,.5545116333,-.1281748024
-.484954839e-1,.5821858428,-.6105400608e-1
-.573853181e-1,.6081527349,.3204372235e-2
-.675212554e-1,.6326049681,.6517534214e-1
-.787851297e-1,.6556861729,.1253037732
-.910873043e-1,.6775053064,.1839458463
-.1043591872,.6981457424,.2413955798
-.1185483179,.7176712470,.2979026677
-.353437587e-1,.5413584798,-.2762123200
-.392212892e-1,.5734179159,-.2006019400
-.450431868e-1,.6031139408,-.1297506945
-.524939839e-1,.6308300078,-.6255624174e-1
-.613536159e-1,.6568336117,.1760640659e-2
-.714624718e-1,.6813187619,.6377860107e-1
-.827016168e-1,.7044300269,.1239449561
-.949808558e-1,.7262770389,.1826175722
-.1082311775,.7469436821,.2400916687
-.403320397e-1,.5541693353,-.3646623289
-.415808737e-1,.5894239989,-.2820621636
-.452974648e-1,.6216790597,-.2060409030
-.509872080e-1,.6515357190,-.1348789914
-.583254389e-1,.6793886124,-.6744265782e-1
-.670864646e-1,.7055120745,-.2933800202e-2
-.771069913e-1,.7301045905,.5923829838e-1
-.882655417e-1,.7533138189,.1195290304
-.1004700859,.7752516235,.1783018512
-.518653443e-1,.5613859177,-.4696919665
-.493041443e-1,.6012717436,-.3760998633
-.501788517e-1,.6369811636,-.2924609834
-.536052179e-1,.6695889977,-.2156927345
-.590577008e-1,.6997340513,-.1439681377
-.661945061e-1,.7278317812,-.7609480178e-1
-.747795409e-1,.7541691631,-.1123966140e-1
-.846427489e-1,.7789529030,.5121022756e-1
-.956580076e-1,.8023363047,.1117250658
-.736448932e-1,.5587841548,-.6034243016
-.645660159e-1,.6065923318,-.4894521152
-.611791323e-1,.6474817908,-.3933723980
-.614717623e-1,.6838987350,-.3080981929
-.644513577e-1,.7170496278,-.2301652899
-.695412785e-1,.7476353809,-.1575689039
-.763719502e-1,.7761052223,-.8902132341e-1
-.846906351e-1,.8027663570,-.2363335169e-1
-.943165613e-1,.8278385172,.3924332016e-1
-.1187983107,.5307595028,-.8115850115
-.923633085e-1,.5996643540,-.6386127938
-.811200758e-1,.6501033428,-.5175724480
-.764857505e-1,.6925090876,-.4176755632
-.759221587e-1,.7299667862,-.3299556767
-.782552181e-1,.7639035536,-.2503071590
-.828262721e-1,.7951199998,-.1764389396
-.892223818e-1,.8241180576,-.1069140211
-.971653389e-1,.8512358966,-.4075692080e-1
-.1762669283+.8338985016e-1*I,.4912175593+.1013618252*I,-1.047197551+.3026070709*I
-.1588898597,.5491123315,-.9163255523
-.1173647912,.6363594237,-.6896586619
-.1025272258,.6911673861,-.5566466900
-.960002846e-1,.7358736397,-.4508385019
-.941910934e-1,.7748453857,-.3594825312
-.956065177e-1,.8098975547,-.2773416513
-.994531063e-1,.8419946003,-.2016524662
-.1052495639,.8717215472,-.1307415727
.17263687e-1,.4850902576,.4841277641e-1
.6298600e-2,.5085346435,.1090069743
-.5726973e-2,.5306899916,.1680244240
-.18739253e-1,.5516459792,.2257740956
-.32681749e-1,.5714712733,.2825163925
-.47511577e-1,.5902179993,.3384768808
-.63196967e-1,.6079247747,.3938562397
-.79715574e-1,.6246187610,.4488378058
-.97053367e-1,.6403170116,.5035935942
.27636778e-1,.5089470817,-.7227355672e-2
.17697407e-1,.5336382439,.5508752658e-1
.6612816e-2,.5569373720,.1154934587
-.5523253e-2,.5789584086,.1743591208
-.18639130e-1,.5997884734,.2319873826
-.32679953e-1,.6194942482,.2886342758
-.47604153e-1,.6381262642,.3445222319
-.63381053e-1,.6557218079,.3998497113
-.79989256e-1,.6723068875,.4547985502
.35549139e-1,.5315116951,-.6743277515e-1
.26787914e-1,.5576349133,-.2924310173e-2
.16767208e-1,.5822272119,.5924747492e-1
.5608494e-2,.6054362424,.1195379552
-.65962014e-2,.6273738633,.1783105722
-.197764914e-1,.6481256316,.2358644911
-.338785158e-1,.6677570160,.2924530947
-.488615088e-1,.6863175674,.3482969100
-.646954691e-1,.7038437529,.4035930567
.406051295e-1,.5524239579,-.1331916181
.332297758e-1,.5802317265,-.6583524315e-1
.244362507e-1,.6063156863,-.1389818193e-2
.143866265e-1,.6308728340,.6073135827e-1
.32015382e-2,.6540498046,.1209810008
-.90275928e-2,.6759577237,.1797207144
-.222308321e-1,.6966815970,.2372483609
-.363546724e-1,.7162864634,.2938163883
-.513586336e-1,.7348215277,.3496446566
.422619520e-1,.5711696238,-.2059290796
.365694808e-1,.6010229664,-.1347736028
.292289288e-1,.6288730388,-.6734227303e-1
.204658715e-1,.6549940318,-.2837384803e-2
.104435265e-1,.6795843378,.5933152789e-1
-.7166818e-3,.7027915504,.1196196879
-.129227620e-1,.7247274883,.1783904374
-.261043524e-1,.7454776762,.2359428655
-.402076127e-1,.7651075583,.2925303002
.397315428e-1,.5869680643,-.2878267818
.361751760e-1,.6194178807,-.2113940819
.306165853e-1,.6494339590,-.1399219043
.233898048e-1,.6774223217,-.7224443392e-1
.147262282e-1,.7036642355,-.7544406812e-2
.47928642e-2,.7283626991,.5478108776e-1
-.62862556e-2,.7516684770,.1151955811
-.184172626e-1,.7736956676,.1740681452
-.315283892e-1,.7945315052,.2317019229
.317702255e-1,.5985264607,-.3825274518
.311096699e-1,.6344961850,-.2982895950
.278483525e-1,.6673046385,-.2210931440
.225301885e-1,.6976129592,-.1490472360
.155070332e-1,.7258488334,-.8092499396e-1
.70210384e-2,.7523065993,-.1587294755e-1
-.27538245e-2,.7771977251,.4673475564e-1
-.136887566e-1,.8006787651,.1073768733
-.256864750e-1,.8228679704,.1664329668
.161313850e-1,.6033888364,-.4970192559
.198452759e-1,.6446757773,-.3999455080
.197798001e-1,.6813688337,-.3140269984
.169729710e-1,.7147297248,-.2356390820
.120223764e-1,.7454848327,-.1627039320
.53088060e-2,.7740970122,-.9389529499e-1
-.29083578e-2,.8008815478,-.2830150046e-1
-.124441006e-1,.8260633269,.3473980199e-1
-.231621312e-1,.8498080152,.9573146250e-1
-.124498586e-1,.5955079500,-.6487509442
-.5385052e-3,.6467590534,-.5255057161
.44643435e-2,.6896127462,-.4244685780
.52755296e-2,.7273713986,-.3360330479
.31270463e-2,.7615325218,-.2558884653
-.12971514e-2,.7929274742,-.1816552786
-.75710327e-2,.8220741032,-.1118513027
-.154088135e-1,.8493197856,-.4547532197e-1
-.246088172e-1,.8749096618,.1819040039e-1
.74885164e-1,.4809598314,.1551678092
.62084435e-1,.5021729635,.2131724269
.48342345e-1,.5222418535,.2701158154
.33704520e-1,.5412219621,.3262302400
.18205004e-1,.5591546716,.3817211369
.1868104e-2,.5760695249,.4367750965
-.15290394e-1,.5919857118,.4915661623
-.33262468e-1,.6069129834,.5462610797
-.52047490e-1,.6208521020,.6010239729
.88264339e-1,.5068728356,.1046535611
.76313233e-1,.5291186991,.1637746653
.63370686e-1,.5501594492,.2216073379
.49494308e-1,.5700651092,.2784149945
.34727875e-1,.5888888934,.3344253683
.19103902e-1,.6066703223,.3898406691
.2645377e-2,.6234373390,.4448452809
-.14633091e-1,.6392076999,.4996118620
-.32724584e-1,.6539898157,.5543064878
.99591621e-1,.5318894975,.5062093145e-1
.88586921e-1,.5552857330,.1111524317
.76524741e-1,.5773965832,.1701193247
.63478156e-1,.5983108717,.2278285395
.49503113e-1,.6180966046,.2845390194
.34642060e-1,.6368053757,.3404752791
.18926402e-1,.6544753606,.3958372566
.2378171e-2,.6711333376,.4508077845
-.149888878e-1,.6867960154,.5055585700
.1086006198,.5557870915,-.7534890049e-2
.986670748e-1,.5804853361,.5479028609e-1
.875877918e-1,.6037909140,.1152045215
.754566323e-1,.6258179202,.1740768792
.623453630e-1,.6466535845,.2317104913
.483089150e-1,.6663646776,.2883615836
.333889169e-1,.6850018007,.3442527249
.176160933e-1,.7026022991,.3995824725
.10118829e-2,.7191922325,.4545327286
.1149475469,.5782685101,-.7063181368e-1
.1062511819,.6044705682,-.5996270176e-2
.962885049e-1,.6291334014,.5627749412e-1
.851826835e-1,.6524067226,.1166502527
.730269646e-1,.6744038758,.1754891787
.598926509e-1,.6952115291,.2330960703
.458343145e-1,.7148960168,.2897261983
.308932952e-1,.7335075880,.3456014441
.151000753e-1,.7510832942,.4009198819
.1181734567,.5989214291,-.1398161017
.1109443299,.6269069406,-.7214372280e-1
.1022787039,.6531463630,-.7447731591e-2
.923435082e-1,.6778425995,.5487452499e-1
.812627200e-1,.7011463499,.1152864075
.691301693e-1,.7231716640,.1741568666
.560175943e-1,.7440057412,.2317889617
.419799062e-1,.7637153272,.2884388640
.270587174e-1,.7823510028,.3443291018
.1176372812,.6171438965,-.2167732897
.1122115827,.6473215074,-.1449847777
.1050974625,.6754468114,-.7706189276e-1
.965322115e-1,.7018082404,-.1216753648e-1
.866866617e-1,.7266134444,.5031379230e-1
.756874666e-1,.7500163717,.1108539893
.636303749e-1,.7721334078,.1698278950
.505885593e-1,.7930534939,.2275427199
.366180424e-1,.8128447283,.2842576104
.1123845629,.6319946405,-.3041549864
.1092911036,.6650071298,-.2265205679
.1041090896,.6954809433,-.1541469647
.972008505e-1,.7238564988,-.8577135897e-1
.888148074e-1,.7504357589,-.2051912059e-1
.791289668e-1,.7754350920,.4224891070e-1
.682748728e-1,.7990143927,.1030203072
.563517689e-1,.8212942926,.1621806707
.434354270e-1,.8423668947,.2200447975
.1008500657,.6418459177,-.4065762817
.1010170123,.6788214868,-.3199950982
.983860297e-1,.7123961242,-.2411414550
.935767409e-1,.7433229912,-.1678606531
.869816269e-1,.7720791560,-.9878619648e-1
.788669538e-1,.7989882713,-.3298310645e-1
.694221099e-1,.8242805402,.3022547073e-1
.587863346e-1,.8481252106,.9135189807e-1
.470643289e-1,.8706495494,.1507987163
.128242504,.4731588895,.2556169890
.113830461,.4924134408,.3119232739
.98548996e-1,.5106111942,.3675554836
.82424771e-1,.5277845586,.4227043844
.65475668e-1,.5439552680,.4775466998
.47711647e-1,.5591354312,.5322505839
.29135214e-1,.5733280935,.5869804037
.9741533e-2,.5865273763,.6419012326
-.10481796e-1,.5987182075,.6971833946
.144179388,.5006682175,.2089890240
.130504127,.5208183391,.2660014399
.115930227,.5398761504,.3221690013
.100492506,.5578839713,.3776988005
.84215929e-1,.5748721496,.4327785733
.67116875e-1,.5908605913,.4875830881
.49203913e-1,.6058597140,.5422794601
.30478204e-1,.6198709288,.5970318532
.10933552e-1,.6328867032,.6520059545
.158348194,.5275410307,.1595181015
.145475684,.5486669116,.2174351632
.131665653,.5686532191,.2743093843
.116962787,.5875542695,.3303707099
.101400352,.6054104996,.3858229284
.85001987e-1,.6222506405,.4408514981
.67782879e-1,.6380931557,.4956297496
.49750494e-1,.6529471183,.5503240775
.30904916e-1,.6668126296,.6050985894
.1705554328,.5536272946,.1068031422
.1585675268,.5758284261,.1658728837
.1455905268,.5968272979,.2236644206
.1316814888,.6166932604,.2804396710
.1168837478,.6354789886,.3364252921
.1012294488,.6532235555,.3918227327
.847412618e-1,.6699545183,.4468158573
.674335111e-1,.6856892855,.5015770025
.493128466e-1,.7004359422,.5562720954
.1805608848,.5787360972,.5032301294e-1
.1695615248,.6021388234,.1108629484
.1575042808,.6242556737,.1698366433
.1444623216,.6451755859,.2275513001
.1304916689,.6649666549,.2842660576
.1156348282,.6836805466,.3402055730
.999232545e-1,.7013554953,.3955698826
.833790212e-1,.7180183318,.4505418875
.660159122e-1,.7336858108,.5052933361
.1880594220,.6026173172,-.1061517484e-1
.1781843393,.6273866227,.5181359990e-1
.1671582755,.6507568912,.1123114085
.1550763446,.6728437340,.1712511359
.1420112439,.6937355175,.2289386207
.1280186294,.7134998913,.2856320200
.1131407128,.7321881648,.3415552895
.974087046e-1,.7498382753,.3969079687
.808444661e-1,.7664767951,.4518726216
.1926521475,.6249316240,-.7696085164e-1
.1840848282,.6512905399,-.1207059560e-1
.1742374328,.6760935003,.5040744399e-1
.1632365590,.6994943868,.1109449883
.1511779156,.7216095367,.1699167549
.1381346455,.7425278550,.2276298690
.1241627488,.7623174117,.2843434138
.1093047141,.7810298522,.3402820063
.935919829e-1,.7987033943,.3956456549
.1937976788,.6451982355,-.1500679822
.1867974598,.6734619893,-.8189530519e-1
.1783314297,.6999440237,-.1680338746e-1
.1685743599,.7248567758,.4583625336e-1
.1576555932,.7483574654,.1065041286
.1456728021,.7705648153,.1655809950
.1327005926,.7915695092,.2233782355
.1187960961,.8114409921,.2801579786
.1040027092,.8302320130,.3361470284
.1907228714,.6626962690,-.2319755834
.1856788923,.6933378667,-.1592677169
.1788868673,.7218546838,-.9063417050e-1
.1706017095,.7485565710,-.2517839223e-1
.1610055821,.7736649513,.3775252975e-1
.1502328484,.7973431475,.9865523545e-1
.1383847575,.8197142276,.1579215300
.1255385679,.8408721012,.2158705715
.1117534557,.8608886975,.2727700428
.177860145,.4622528478,.3514393246
.161978726,.4797213465,.4067100077
.145268075,.4961819001,.4616238352
.127740394,.5116493380,.5163509368
.109400328,.5261293084,.5710563126
.90245183e-1,.5396185366,.6259043699
.70264803e-1,.5521046756,.6810634202
.49441092e-1,.5635657323,.7367104757
.27747149e-1,.5739690060,.7930367440
.196040025,.4910480060,.3078498352
.180820833,.5093214541,.3635244673
.164757251,.5265685299,.4187024492
.147867763,.5428117033,.4735613322
.130162888,.5580637590,.5282697266
.111645666,.5723283929,.5829921226
.92311798e-1,.5856003796,.6378933905
.72149450e-1,.5978653346,.6931433120
.51138699e-1,.6090990406,.7489214935
.212661153,.5193890434,.2618826003
.198151362,.5385247800,.3181043909
.182775566,.5566078732,.3736740858
.166559401,.5736694812,.4287805946
.149519835,.5897302327,.4835994425
.131665991,.6048012144,.5382981373
.112999562,.6188844852,.5930409051
.93514894e-1,.6319731709,.6479931719
.73198720e-1,.6440511481,.7033261364
.2275757198,.5471683442,.2132574809
.2138322728,.5672355846,.2701994778
.1991931488,.5862141147,.3263128328
.1836923768,.6041452976,.3818029484
.1673542498,.6210586602,.4368563926
.1501945438,.6369733777,.4916471939
.1322212668,.6518991874,.5463420907
.1134350378,.6658368387,.6011052067
.938291068e-1,.6787781269,.6561025229
.2406050788,.5742539088,.1616196937
.2276979658,.5953377285,.2194949317
.2138551608,.6152841987,.2763361506
.1991209018,.6341470896,.3323721959
.1835280808,.6519663846,.3878060724
.1671000148,.6687704248,.4428227043
.1498516062,.6845773238,.4975950858
.1317900504,.6993958282,.5522894523
.1129151675,.7132257192,.6070699123
.2515296628,.6004799312,.1065131057
.2395467178,.6226870941,.1655897572
.2265743651,.6436916133,.2233868262
.2126697323,.6635629305,.2801664344
.1978762145,.6823537924,.3361553812
.1822260073,.7001033332,.3915552192
.1657418238,.7168391612,.4465498811
.1484380248,.7325787323,.5013117473
.1303212980,.7473301754,.5560067651
.2600740883,.6256324473,.4733951602e-1
.2491282828,.6491002708,.1079643365
.2371205223,.6712772697,.1670064797
.2241249283,.6922535392,.2247759182
.2101982582,.7120980697,.2815337716
.1953836091,.7308632458,.3375061190
.1797129281,.7485879006,.3928940039
.1632087148,.7652993821,.4478810106
.1458851373,.7810149118,.5026393058
.2658841888,.6494264954,-.1670617958e-1
.2561252593,.6743369873,.4593012092e-1
.2452048028,.6978356237,.1065953032
.2332204522,.7200410770,.1656699953
.2202467819,.7410439956,.2234654962
.2063409007,.7609137953,.2802438690
.1915461860,.7797032023,.3362318727
.1758948191,.7974513335,.3916310312
.1594095012,.8141857827,.4466252567
.2684897195,.6714677623,-.8674494329e-1
.2601238269,.6980715148,-.2145217083e-1
.2504559164,.7230926426,.4134831125e-1
.2396180917,.7466917186,.1021458689
.2277099944,.7689898595,.1613273364
.2148076920,.7900795272,.2192083747
.2009694448,.8100315370,.2760541682
.1862395512,.8288997351,.3320937157
.1706509571,.8467241676,.3875301305
.224101499,.4486223332,.4438689795
.206837540,.4644103303,.4986383324
.188760499,.4792100119,.5533328051
.169870056,.4930209893,.6081165096
.150158504,.5058338953,.6631559907
.129610396,.5176299516,.7186248835
.108201805,.5283800752,.7747091352
.85899126e-1,.5380434206,.8316132438
.62657267e-1,.5465651761,.8895681566
.244293706,.4784840471,.4027009366
.227642911,.4950173559,.4576349077
.210174456,.5105567850,.5123699986
.191893527,.5251086372,.5670714261
.172797964,.5386702875,.6219034911
.152878164,.5512300634,.6770340651
.132116635,.5627667032,.7326393524
.110487156,.5732483340,.7889093189
.87953437e-1,.5826308454,.8460542768
.263088201,.5080262802,.3594908255
.247085358,.5253471863,.4146988272
.230255541,.5416628912,.4695751693
.212609828,.5569868590,.5242889437
.194151793,.5713234366,.5790047870
.174877676,.5846680514,.6338873918
.154776205,.5970070025,.6891060227
.133828072,.6083168215,.7448393908
.112004994,.6185631305,.8012812814
.2803679128,.5371678377,.3140363347
.2650541778,.5553263669,.3696469219
.2488985118,.5724615141,.4247810955
.2319184838,.5885946337,.4796151616
.2141237658,.6037374849,.5343170469
.1955165878,.6178927757,.5890510644
.1760918338,.6310542877,.6439824018
.1558368068,.6432065904,.6992816747
.1347306408,.6543243169,.7551299058
.2959941518,.5658121876,.2660851924
.2814189488,.5848684155,.3222516614
.2659799688,.6028747071,.3777806599
.2497021648,.6198613924,.4328598980
.2326019008,.6358483635,.4876641305
.2146877358,.6508460245,.5423604646
.1959608208,.6648557727,.5971130622
.1764149468,.6778700628,.6520876170
.1560362653,.6898720599,.7074559491
.3098004528,.5938421402,.2153199801
.2960241148,.6138694014,.2722283744
.2813535098,.6328096662,.3283159168
.2658222908,.6507038385,.3837872061
.2494544238,.6675810517,.4388282592
.2322653960,.6834601290,.4936127566
.2142629480,.6983504799,.5483072639
.1954474332,.7122525337,.6030758945
.1758118329,.7251577595,.6580847801
.3215839219,.6211121514,.1613361121
.3086814750,.6422016434,.2192169759
.2948430907,.6621534871,.2760626326
.2801130661,.6810215258,.3321020748
.2645243451,.6988458043,.3875384135
.2481002872,.7156547159,.4425566433
.2308558333,.7314664219,.4973298049
.2127982151,.7462897127,.5520241540
.1939272885,.7601244125,.6068037986
.3310926732,.6474368230,.1036089084
.3191594737,.6697044517,.1627550999
.3062336851,.6907655715,.2206078709
.2923731871,.7106905349,.2774313716
.2776219737,.7295328187,.3334538596
.2620127388,.7473321620,.3888779199
.2455686254,.7641166961,.4438881906
.2283043809,.7799043461,.4986574882
.2102270554,.7947036819,.5533519635
.3380069452,.6725730103,.4144239770e-1
.3271674201,.6961700200,.1022372199
.3152577545,.7184662550,.1614164804
.3023539853,.7395541393,.2192957493
.2885143482,.7595044600,.2761401477
.2737831234,.7783710397,.3321786266
.2581932405,.7961939058,.3876142670
.2417680467,.8130014370,.4426320437
.2245224721,.8288117806,.4974049835
