-.1397542608,.2410020017,-.1412057743
-.1504085169,.2802355249,-.4600500981e-1
-.1635477051,.3154836573,.4207914661e-1
-.1787070705,.3474917825,.1250065951
-.1955847709,.3767440031,.2040815093
-.2139746663,.4035709287,.2802350524
-.2337318046,.4282050383,.3541709098
-.2547531562,.4508115732,.4264476834
-.2769662549,.4715067575,.4975293682
-.3003222989,.4903688577,.5678185873
-.1381107597,.747865041e-1,-.6530857512
-.1217485771,.1573496223,-.4557413817
-.1201041926,.2163079960,-.3175667069
-.1249049790,.2649294533,-.2031366089
-.1337227871,.3071083166,-.1022260502
-.1454385865,.3446393137,-.1015912766e-1
-.1594277945,.3785241635,.7567941017e-1
-.1753021145,.4093856293,.1569395906
-.1928035043,.4376375616,.2347531289
-.2117532704,.4635665540,.3099475764
-.2320249361,.4873754521,.3831611295
-.2535287187,.5092082534,.4549098097
-.2762022340,.5291650104,.5256298167
-.1728432678+.3381899436e-1*I,.219193364e-1+.5423969233e-1*I,-.9162978576+.1490708860*I
-.1218783606,.1599791132,-.5721928003
-.1126229816,.2311441763,-.4040069057
-.1136513329,.2858159531,-.2759197772
-.1200234060,.3319173425,-.1669246921
-.1299390049,.3723355445,-.6946879159e-1
-.1424984150,.4085135373,.2020547867e-1
-.1571770096,.4412927350,.1043025343
-.1736398141,.4712103747,.1842583618
-.1916604695,.4986294969,.2610816569
-.2110807045,.5238039392,.3355244287
-.2317881300,.5469139576,.4081765011
-.2537032891,.5680869831,.4795222806
-.1499354878+.7991930505e-1*I,.644737692e-1+.1281764464*I,-.9162978578+.3466013277*I
-.1448252773,.1289907138,-.7814073722
-.1125431232,.2370866558,-.5165577012
-.1072424173,.3019091220,-.3641658951
-.1101049728,.3536391569,-.2428153421
-.1176326724,.3978871255,-.1377020993
-.1283851095,.4369631895,-.4279660585e-1
-.1416020871,.4720865609,.4507772304e-1
-.1568263855,.5039905440,.1278501329
-.1737604014,.5331524444,.2068080136
-.1922006139,.5598986710,.2828725529
-.2120038127,.5844589073,.3567411747
-.2330682052,.6069964134,.4289684278
-.1283222416+.1112687077*I,.1082506512+.1784553497*I,-.9162978580+.4742965098*I
-.1536085632+.6844916746e-1*I,.1240169276+.1097803721*I,-.9162978577+.2983884563*I
-.1287650790,.2201825583,-.6926514458
-.1081909352,.3095009186,-.4776842104
-.1052978214,.3704620323,-.3347026632
-.1094096067,.4201885243,-.2178380019
-.1177606875,.4631159367,-.1154239672
-.1291244444,.5012115471,-.2233239868e-1
-.1428295829,.5355519944,.6424487343e-1
-.1584636506,.5667987836,.1460554473
-.1757545708,.5953882703,.2242860226
-.1945147634,.6216213049,.2997974769
-.2146117150,.6457104143,.3732491759
-.1081687510+.1387966377*I,.1534060040+.2226052864*I,-.9162978578+.5808529349*I
-.1334550722+.1055905193*I,.1691722801+.1693485390*I,-.9162978575+.4516464417*I
-.1587413940+.5942524464e-1*I,.1849385561+.9530759400e-1*I,-.9162978579+.2599736536*I
-.1241153839,.2967936291,-.6480244455
-.1082537400,.3785539747,-.4527595786
-.1067734099,.4372492282,-.3152122888
-.1116668334,.4857221136,-.2011072375
-.1205480756,.5277992382,-.1003994766
-.1323120284,.5652530054,-.8471539748e-2
-.1463402597,.5990752713,.7726646691e-1
-.1622476849,.6298836394,.1584516013
-.1797781466,.6580889459,.2362082372
-.1987541490,.6839758600,.3113594453
-.896968863e-1+.1649944000*I,.2001493443+.2646218689*I,-.9162978578+.6770510390*I
-.1149832075+.1365562251*I,.2159156203+.2190120605*I,-.9162978575+.5723875793*I
-.1402695294+.1028066337*I,.2316818964+.1648836780*I,-.9162978580+.4404612072*I
-.1655558513+.5466220007e-1*I,.2474481729+.8766851208e-1*I,-.9162978577+.2395417114*I
-.1268410746,.3658609035,-.6292139162
-.1127694769,.4447503333,-.4413569287
-.1119046569,.5024584187,-.3061543959
-.1171500590,.5503667914,-.1932792898
-.1262737962,.5920549973,-.9334326812e-1
-.1382225033,.6292124526,-.1945925900e-2
-.1524008243,.6627939995,.8340755525e-1
-.1684358144,.6933977768,.1643053707
-.1860784526,.7214231723,.2418440522
-.732153254e-1+.1910755091*I,.2487721605+.3064513601*I,-.9162978578+.7677021116*I
-.985016467e-1+.1656071952*I,.2645384368+.2656046844*I,-.9162978574+.6792394176*I
-.1237879688+.1372544602*I,.2803047130+.2201319061*I,-.9162978579+.5750298451*I
-.1490742907+.1036772954*I,.2960709893+.1662800656*I,-.9162978578+.4439650196*I
-.1743606127+.5618119933e-1*I,.3118372659+.9010471852e-1*I,-.9162978576+.2460687817*I
-.1368840766,.4282640797,-.6349211906
-.1222807904,.5080062409,-.4448687693
-.1212283762,.5660151977,-.3089531357
-.1263657621,.6140968071,-.1957014542
-.1354148344,.6559047637,-.9552840329e-1
-.1473065410,.6931536362,-.3967816582e-2
-.1614384934,.7268095492,.8150408919e-1
-.1774340355,.7574765952,.1624904457
-.591747100e-1+.2179206342*I,.2997000017+.3495061980*I,-.9162978580+.8557843946*I
-.844610314e-1+.1945190929*I,.3154662780+.3119742606*I,-.9162978574+.7792933991*I
-.1097473556+.1693608645*I,.3312325556+.2716249065*I,-.9162978578+.6925826324*I
-.1350336759+.1415121182*I,.3469988308+.2269604373*I,-.9162978579+.5910632679*I
-.1603199977+.1089284497*I,.3627651072+.1747019895*I,-.9162978576+.4649882112*I
-.1856063205+.6482503665e-1*I,.3785313840+.1039679064*I,-.9162978578+.2830089777*I
-.1564529028,.4816093860,-.6730512716
-.1380336392,.5674717000,-.4671264944
-.1357506350,.6274543047,-.3265003270
-.1401955054,.6766465876,-.2108162944
-.1487710992,.7192139194,-.1091279670
-.1603037053,.7570387259,-.1652970966e-1
-.1741448240,.7911610864,.6969244289e-1
-.482792074e-1+.2464247727*I,.3535978241+.3952218006*I,-.9162978578+.9437685468*I
-.735655304e-1+.2245656390*I,.3693641012+.3601636121*I,-.9162978578+.8767940623*I
-.988518521e-1+.2015724077*I,.3851303770+.3232865308*I,-.9162978582+.8027641744*I
-.1241381744+.1770036590*I,.4008966539+.2838825986*I,-.9162978579+.7194234529*I
-.1494244970+.1500876611*I,.4166629307+.2407140931*I,-.9162978577+.6229457831*I
-.1747108193+.1192454100*I,.4324292073+.1912485710*I,-.9162978578+.5057353527*I
-.1999971401+.8006110758e-1*I,.4481954831+.1284038727*I,-.9162978576+.3471927537*I
-.1952375741,.5121500569,-.7829727634
-.1627168354,.6206286459,-.5170958507
-.1573808980,.6855076159,-.3645650775
-.1602259339,.7372657505,-.2431509892
-.1677422957,.7815319042,-.1380001752
-.1784864016,.8206213265,-.4306967471e-1
-.417470711e-1+.2778155165*I,.4116160426+.4455670075*I,-.9162978585+1.034485606*I
-.670333921e-1+.2571706200*I,.4273823191+.4124562416*I,-.9162978575+.9755276564*I
-.923197158e-1+.2357735033*I,.4431485959+.3781390460*I,-.9162978583+.9115380234*I
-.1176060352+.2133980185*I,.4589148707+.3422527213*I,-.9162978583+.8413075928*I
-.1428923579+.1896982693*I,.4746811479+.3042425109*I,-.9162978578+.7630418059*I
-.1681786805+.1641015037*I,.4904474245+.2631898209*I,-.9162978581+.6738573189*I
-.1934650032+.1355371705*I,.5062137015+.2173776769*I,-.9162978578+.5685247791*I
-.2187513241+.1015307694*I,.5219799774+.1628374174*I,-.9162978576+.4353175459*I
-.2440376459+.5238148933e-1*I,.5377462536+.8401065492e-1*I,-.9162978577+.2297228403*I
-.2035690779,.6589717587,-.6211138211
-.1902355783,.7366774059,-.4362973879
-.1896380061,.7939568756,-.3021083379
-.1950384121,.8416166472,-.1897722689
-.1189145422,.676342155e-1,-.2557190150
-.1260009112,.1125900014,-.1491356833
-.1364308322,.1521833191,-.5325622411e-1
-.1493929152,.1877154986,.3530879928e-1
-.1644048212,.2199601226,.1185909428
-.1811548782,.2494170594,.1979333813
-.1994309032,.2764266153,.2742903675
-.2190839342,.3012276934,.3483800324
-.2400081132,.3239900769,.4207703340
-.2621288472,.3448333978,.4919313825
-.2853956402,.3638386412,.5622697097
-.3097777642,.3810550913,.6321524593
-.3352618182,.3965042414,.7019260117
-.1015623344,.891719062e-1,-.3122550168
-.1065714387,.1374592577,-.1985550985
-.1155321220,.1794089744,-.9810076852e-1
-.1273564826,.2167658588,-.6346781769e-2
-.1414337227,.2505095215,.7926528545e-1
-.1573827622,.2812511491,.1603563726
-.1749497902,.3093978095,.2380416796
-.1939588102,.3352317687,.3131386906
-.2142851892,.3589529175,.3862791909
-.2358404832,.3807031041,.4579750123
-.2585633412,.4005807239,.5286596341
-.2824139722,.4186495945,.5987164783
-.3073708832,.4349441876,.6684997741
-.876439694e-1,.1074839652,-.3797820644
-.898086000e-1,.1603333484,-.2558880665
-.968891117e-1,.2052985278,-.1492851202
-.1073147769,.2448986730,-.5339272823e-1
-.1202735079,.2804362269,.3518143463e-1
-.1352826287,.3126853181,.1184703124
-.1520302783,.3421461170,.1978178286
-.1703041565,.3691591135,.2741786731
-.1899552289,.3939633356,.3482712598
-.2108775796,.4167286506,.4206637192
-.2329965762,.4375747560,.4918262803
-.2562616932,.4565826883,.5621655504
-.2806421732,.4738017761,.6320487186
-.784502858e-1,.1206365306,-.4633594110
-.763807623e-1,.1802767527,-.3235543570
-.809437801e-1,.2292795460,-.2082874618
-.895995134e-1,.2717183500,-.1068570623
-.1011926128,.3094461366,-.1443470893e-1
-.1150825686,.3434901701,.7166057054e-1
-.1308727961,.3744865059,.1531122408
-.1483004165,.4028567502,.2310709354
-.1671836635,.4288924274,.3063757038
-.1873939670,.4527997407,.3796720570
-.2088400261,.4747251201,.4514807841
-.2314582893,.4947704912,.5222411921
-.2552071619,.5130025647,.5923403244
-.768860706e-1,.1241413529,-.5748895034
-.674216768e-1,.1956416385,-.4058589288
-.683603280e-1,.2504572765,-.2774381871
-.746775084e-1,.2966467051,-.1682561630
-.845539755e-1,.3371276661,-.7067918736e-1
-.970829425e-1,.3733544867,.1907983418e-1
-.1117364483,.4061739216,.1032389556
-.1281777022,.4361261241,.1832414264
-.1461792492,.4635758925,.2601001684
-.1655821031,.4887782127,.3345698120
-.1862733742,.5119141385,.4072418607
-.2081732378,.5331116953,.4786018295
-.2312270610,.5524585059,.5490661495
-.956396537e-1,.978628761e-1,-.7687683240
-.652401593e-1,.2029393648,-.5120114391
-.602349189e-1,.2672879547,-.3607837366
-.632452553e-1,.3187809777,-.2399684206
-.708688231e-1,.3628751922,-.1351724119
-.816917938e-1,.4018381266,-.4047840053e-1
-.949647622e-1,.4368717005,.4724543142e-1
-.1102358600,.4687006273,.1299065448
-.1272105049,.4977973656,.2087803722
-.1456870480,.5244853244,.2847809883
-.1655235265,.5489921854,.3586013431
-.1866190342,.5714797872,.4307930848
-.2089027040,.5920617878,.5018156584
-.1063725496+.6463801809e-1*I,.875232002e-1+.1036679617*I,-.9162978579+.2822135387*I
-.770120639e-1,.1909333017,-.6721072550
-.586931215e-1,.2766347196,-.4666021484
-.564399628e-1,.3365694567,-.3260908749
-.609013008e-1,.3857353296,-.2104650327
-.694880486e-1,.4282847719,-.1088126409
-.810290676e-1,.4660960870,-.1623887037e-1
-.948769741e-1,.5002075603,.6996562571e-1
-.1106316231,.5312609574,.1514986885
-.1280280659,.5596812058,.2295190634
-.1468832231,.5857619340,.3048707154
-.1670676326,.6097107755,.3782022802
-.1884893493,.6316751968,.4500365886
-.852251839e-1+.1011691733*I,.1317400209+.1622574810*I,-.9162978575+.4338577879*I
-.1105115062+.5172223770e-1*I,.1475062975+.8295333180e-1*I,-.9162978574+.2268805436*I
-.695583321e-1,.2695090233,-.6188721177
-.564257505e-1,.3468924330,-.4348818607
-.559023170e-1,.4040529982,-.3009734617
-.613459580e-1,.4516434283,-.1887874556
-.706072980e-1,.4931109456,-.8928685066e-1
-.826613161e-1,.5300994995,.1809953062e-2
-.969254520e-1,.5635434149,.8694513342e-1
-.1130335419,.5940299546,.1676796263
-.1307405732,.6219520734,.2450943534
-.1498761892,.6475829956,.3199858477
-.1703196262,.6711164044,.3929725024
-.656040835e-1+.1312174553*I,.1773981177+.2104496167*I,-.9162978580+.5520653606*I
-.908904042e-1+.9604902628e-1*I,.1931643934+.1540456698*I,-.9162978577+.4130950952*I
-.1161767260+.4159279935e-1*I,.2089306696+.6670750214e-1*I,-.9162978580+.1829938289*I
-.688796979e-1,.3411078178,-.5893788668
-.582620651e-1,.4144576925,-.4156719629
-.587184123e-1,.4700468625,-.2854511844
-.647430251e-1,.5167055185,-.1752691017
-.744118801e-1,.5575194517,-.7704712864e-1
-.867797863e-1,.5940045841,.1316227310e-1
-.1013008228,.6270364769,.9765078111e-1
-.1176284567,.6571709062,.1779005991
-.1355293743,.6847820644,.2549472749
-.1548407790,.7101310540,.3295594359
-.477558252e-1+.1591461794*I,.2247303403+.2552423561*I,-.9162978580+.6560239284*I
-.730421477e-1+.1298437962*I,.2404966173+.2082465102*I,-.9162978576+.5468025130*I
-.983284698e-1+.9427866974e-1*I,.2562628935+.1512063305*I,-.9162978580+.4058763356*I
-.1236147912+.3761216324e-1*I,.2720291696+.6032326510e-1*I,-.9162978578+.1656469622*I
-.743225157e-1,.4074063425,-.5800428003
-.644538571e-1,.4795549953,-.4093759593
-.652210172e-1,.5346456764,-.2803163753
-.714336715e-1,.5810027470,-.1707777736
-.812357809e-1,.6216029640,-.7297029396e-1
-.937069739e-1,.6579224428,.1694989018e-1
-.1083129113,.6908181692,.1012269692
-.1247133328,.7208358586,.1813180525
-.1426786944,.7483436632,.2582441333
-.320284423e-1+.1866634133*I,.2740653392+.2993751384*I,-.9162978574+.7527229932*I
-.573147639e-1+.1607741578*I,.2898316154+.2578533462*I,-.9162978573+.6619031570*I
-.826010865e-1+.1317216019*I,.3055978920+.2112581789*I,-.9162978576+.5539934012*I
-.1078874079+.9669530659e-1*I,.3213641678+.1550821891*I,-.9162978578+.4157252976*I
-.1331737296+.4297132792e-1*I,.3371304442+.6891841850e-1*I,-.9162978576+.1889887817*I
-.866285740e-1,.4681017161,-.5928893019
-.757236588e-1,.5419123484,-.4180134486
-.760631446e-1,.5976889395,-.2873549859
-.820175233e-1,.6444602378,-.1769319103
-.916367776e-1,.6853537237,-.7855518823e-1
-.1039663189,.7219003868,.1176199559e-1
-.1184558655,.7549827825,.9632921060e-1
-.1347565322,.7851604639,.1766380890
-.189402680e-1+.2148865990*I,.3258925853+.3446401418*I,-.9162978579+.8460884901*I
-.442265895e-1+.1912869236*I,.3416588616+.3067904321*I,-.9162978574+.7684162589*I
-.695129112e-1+.1658380987*I,.3574251376+.2659750124*I,-.9162978579+.6800632727*I
-.947992331e-1+.1375173209*I,.3731914139+.2205534882*I,-.9162978578+.5760236265*I
-.1200855562+.1040043395*I,.3889576912+.1668045867*I,-.9162978575+.4452798271*I
-.1453718774+.5674454448e-1*I,.4047239671+.9100822456e-1*I,-.9162978577+.2484868540*I
-.1083696351,.5203900957,-.6371047994
-.935603283e-1,.6004626786,-.4462005453
-.924363183e-1,.6585864612,-.3100124015
-.975326510e-1,.7067339128,-.1966173914
-.1065534029,.7485872898,-.9635429876e-1
-.1184235164,.7858707957,-.4731760075e-2
-.1325379181,.8195548584,.8078505982e-1
-.93251876e-2+.2449086726*I,.3809995307+.3927902443*I,-.9162978577+.9392269693*I
-.346115093e-1+.2229798137*I,.3967658074+.3576202288*I,-.9162978573+.8718081370*I
-.598978317e-1+.1998921901*I,.4125320833+.3205917588*I,-.9162978582+.7972059505*I
-.851841527e-1+.1751882678*I,.4282983594+.2809710319*I,-.9162978577+.7130876173*I
-.1104704754+.1480612070*I,.4440646363+.2374640190*I,-.9162978575+.6154614905*I
-.1357567963+.1168352023*I,.4598309119+.1873830239*I,-.9162978577+.4962833363*I
-.1610431185+.7665480074e-1*I,.4755971885+.1229407583*I,-.9162978574+.3329538639*I
-.1488942085,.5514029642,-.7499084140
-.1211635614,.6521990948,-.5045813788
-.1166329957,.7157863874,-.3552186524
-.1198839586,.7668934887,-.2352722941
-.1276645062,.8107359341,-.1309940952
-.1386033419,.8495130438,-.3664623768e-1
-.860545368e-1,.762727643e-1,-.1651891226
-.960210078e-1,.1166093749,-.6789039249e-1
-.1086200378,.1527238273,.2167377542e-1
-.1233313048,.1854506217,.1056901489
-.1398221898,.2153232253,.1855853295
-.1578677548,.2427023979,.2623625318
-.1773106558,.2678404884,.3367703719
-.1980391528,.2909167118,.4093964810
-.2199742688,.3120577301,.4807238396
-.2430620408,.3313500927,.5511672451
-.2672688108,.3488477788,.6210987348
-.2925785348,.3645765217,.6908668746
-.3189915588,.3785357690,.7608129335
-.658110597e-1,.1009885643,-.2125120198
-.743327040e-1,.1436424216,-.1106497242
-.858246528e-1,.1815324375,-.1793298832e-1
-.996329832e-1,.2157073839,.6837454116e-1
-.1153541722,.2468144435,.1499843515
-.1327213122,.2752816886,.2280628741
-.1515500822,.3014047385,.3034587304
-.1717101772,.3253925768,.3768235100
-.1931090432,.3473936451,.4486819668
-.2156821672,.3675114119,.5194759923
-.2393871682,.3858138471,.5895942406
-.2642002892,.4023390542,.6593937325
-.2901145512,.4170982270,.7292171323
-.481347805e-1,.1237931969,-.2674858434
-.548086506e-1,.1694105578,-.1595145068
-.649403959e-1,.2094820975,-.6272452383e-1
-.776684581e-1,.2453896047,.2648250017e-1
-.924863219e-1,.2779454380,.1102368557
-.1090689362,.3076709231,.1899349511
-.1271959527,.3349194615,.2665623475
-.1467130343,.3599385803,.3408566913
-.1675105408,.3829041233,.4133985459
-.1895110590,.4039402481,.4846662688
-.2126618580,.4231315271,.5550716813
-.2369303150,.4405302776,.6249850463
-.2623013210,.4561607370,.6947541163
-.336454155e-1,.1438103801,-.3323679883
-.378526345e-1,.1933838147,-.2158422833
-.462678274e-1,.2362084015,-.1136359467
-.576797075e-1,.2742268326,-.2068531802e-1
-.714235506e-1,.3085052048,.6579059627e-1
-.870902743e-1,.3396996167,.1475257576
-.1044097512,.3682433052,.2256992309
-.1231956271,.3944351493,.3011672705
-.1433162193,.4184863438,.3745863156
-.1646779790,.4405469247,.4464842772
-.1872156316,.4607215813,.5173051035
-.2108861768,.4790792780,.5874387381
-.2356653176,.4956589835,.6572429057
-.233853238e-1,.1595152646,-.4111326911
-.240662558e-1,.2147442395,-.2817513919
-.302265609e-1,.2611852674,-.1720339114
-.399915073e-1,.3018450883,-.7411101383e-1
-.524338629e-1,.3382108180,.1588978047e-1
-.670160774e-1,.3711445903,.1002258179
-.833961499e-1,.4011949178,.1803611826
-.1013434866,.4287316301,.2573209056
-.1206970570,.4540129923,.3318671142
-.1413425486,.4772223403,.4045961324
-.1631990844,.4984893880,.4759966301
-.1862112041,.5179030829,.5464870699
-.2103439989,.5355194134,.6164416945
-.194396275e-1,.1677475215,-.5121127834
-.144278425e-1,.2321066089,-.3608593198
-.174348892e-1,.2836049070,-.2400321043
-.250563180e-1,.3277025505,-.1352290295
-.358777137e-1,.3666680129,-.4053029755e-1
-.491494305e-1,.4017035938,.4719689305e-1
-.644194817e-1,.4335341987,.1298604905
-.813932175e-1,.4626323950,.2087361953
-.998689475e-1,.4893216579,.2847382388
-.1197046812,.5138297141,.3585596717
-.1407994922,.5363184334,.4307522063
-.1630824984,.5569014978,.5017753286
-.1865061689,.5756551382,.5720287946
-.279479695e-1,.1588919925,-.6610358933
-.107827151e-1,.2427430983,-.4603481639
-.88822821e-2,.3021121263,-.3211923482
-.135394712e-1,.3509638865,-.2062573063
-.222592688e-1,.3932999423,-.1050326773
-.339008115e-1,.4309500344,-.1275087042e-1
-.478299223e-1,.4649312706,.7324294916e-1
-.636533043e-1,.4958744305,.1546189689
-.811099971e-1,.5241980493,.2325203284
-.1000194493,.5501916978,.3077815172
-.1202539191,.5740602522,.3810451525
-.1417227053,.5959491813,.4528301348
-.1643627174,.6159596712,.5235745416
-.629586571e-1+.4544292614e-1*I,.1107133773+.7288242536e-1*I,-.9162978576+.1997203675*I
-.178447220e-1,.2393892288,-.5995601769
-.63851347e-2,.3140894526,-.4224230763
-.65026398e-2,.3702220648,-.2909315735
-.123243099e-1,.4172062051,-.1800521733
-.218500936e-1,.4582495985,-.8138317647e-1
-.341074587e-1,.4949120187,.9137293506e-2
-.485378321e-1,.5280893196,.9385283991e-1
-.647878658e-1,.5583482081,.1742729666
-.826201679e-1,.5860694136,.2514490026
-.1018692995,.6115182769,.3261593085
-.1224178889,.6348830395,.3990106285
-.1441828041,.6562970301,.4704984438
-.422971925e-1+.9049707986e-1*I,.1553890424+.1451413286*I,-.9162978573+.3903895177*I
-.675835145e-1+.2758703012e-1*I,.1711553189+.4424472272e-1*I,-.9162978571+.1217508439*I
-.143174212e-1,.3129057911,-.5613565302
-.58848029e-2,.3827512904,-.3964866427
-.72731679e-2,.4368456683,-.2697347502
-.138670734e-1,.4825912786,-.1614928267
-.239413830e-1,.5227549365,-.6452636631e-1
-.366245485e-1,.5587344497,.2480467202e-1
-.514052903e-1,.5913498186,.1086500634
-.679559405e-1,.6211265714,.1884166609
-.860545584e-1,.6484206538,.2650961244
-.1055457663,.6734812686,.3394299086
-.1263191943,.6964854300,.4120010268
-.232355918e-1+.1236093820*I,.2015754851+.1982476113*I,-.9162978573+.5227435719*I
-.485219136e-1+.8604923418e-1*I,.2173417615+.1380077699*I,-.9162978570+.3720595951*I
-.738082351e-1+.5178144676e-2*I,.2331080374+.8304829274e-2*I,-.9162978574+.2290739179e-1*I
-.163075194e-1,.3816500978,-.5413001748
-.93285025e-2,.4491642763,-.3822517251
-.113803461e-1,.5021945510,-.2579443377
-.183894525e-1,.5472742526,-.1511020372
-.287632834e-1,.5869575301,-.5505202476e-1
-.416812238e-1,.6225605063,.3363352562e-1
-.566564577e-1,.6548639441,.1170044348
-.733748252e-1,.6843717080,.1964137801
-.916226154e-1,.7114265447,.2728216365
-.1112498640,.7362689764,.3469497903
-.60490855e-2+.1534708401*I,.2495326101+.2461401148*I,-.9162978574+.6353720839*I
-.313354082e-1+.1232355024*I,.2652988870+.1976479747*I,-.9162978572+.5212917781*I
-.566217303e-1+.8554431936e-1*I,.2810651632+.1371979756*I,-.9162978576+.3699711250*I
-.745475619e-1,.3086363644,-.8837274688
-.239535573e-1,.4461012805,-.5391416948
-.171258555e-1,.5133727757,-.3806963588
-.192488099e-1,.5662890028,-.2566496779
-.263029086e-1,.6112965451,-.1499582389
-.367093892e-1,.6509274593,-.5400754199e-1
-.496530168e-1,.6864892343,.3460783159e-1
-.646495878e-1,.7187584534,.1179270692
-.813863906e-1,.7482366488,.1972974685
-.996506038e-1,.7752651465,.2736757137
.88676103e-2+.1825438060*I,.2996331542+.2927680161*I,-.9162978574+.7386066732*I
-.164187117e-1+.1562354341*I,.3153994308+.2505740355*I,-.9162978570+.6454623960*I
-.417050359e-1+.1264671146*I,.3311657082+.2028309098*I,-.9162978574+.5338068478*I
-.669913570e-1+.8986380338e-1*I,.3469319841+.1441256650*I,-.9162978574+.3877872243*I
-.922776799e-1+.2557783476e-1*I,.3626982611+.4102232829e-1*I,-.9162978573+.1129225379*I
-.383812988e-1,.5054596008,-.5583809677
-.301699086e-1,.5749502904,-.3944001887
-.316569753e-1,.6288863688,-.2680132992
-.383121236e-1,.6745337562,-.1599786548
-.484304107e-1,.7146268800,-.6314735300e-1
-.611479477e-1,.7505512674,.2608871914e-1
-.759571063e-1,.7831210633,.1098644056
-.925322223e-1,.8128585739,.1895785510
.209132446e-1+.2122571155*I,.3524448881+.3404229152*I,-.9162978575+.8376326837*I
-.43730786e-2+.1884793472*I,.3682111651+.3022875755*I,-.9162978573+.7589055350*I
-.296594006e-1+.1627666953*I,.3839774412+.2610490242*I,-.9162978577+.6690717671*I
-.549457222e-1+.1340100025*I,.3997437175+.2149283692*I,-.9162978576+.5627215467*I
-.802320438e-1+.9960680377e-1*I,.4155099938+.1597517163*I,-.9162978574+.4275405340*I
-.1055183666+.4880062120e-1*I,.4312762705+.7826757507e-1*I,-.9162978576+.2142628574*I
-.625305136e-1,.5565422619,-.6094430403
-.502275342e-1,.6325951385,-.4288570875
-.500166182e-1,.6892544809,-.2961292753
-.556436288e-1,.7365508156,-.1845783051
-.650329074e-1,.7778131422,-.8548088972e-1
-.771851480e-1,.8146441654,.5336872155e-2
-.915294926e-1,.8479594387,.9026903893e-1
-.563018449e-1,.808661399e-1,-.8440580094e-1
-.684817289e-1,.1176528278,.6333648903e-2
-.828486769e-1,.1509318493,.9120878738e-1
-.990445019e-1,.1812776774,.1717485353
-.1168289279,.2090756705,.2490154156
-.1360346479,.2345941573,.3237946641
-.1565430029,.2580234486,.3966974460
-.1782699139,.2794983910,.4682221240
-.2011574179,.2991119480,.5387934364
-.2251685199,.3169234509,.6087894318
-.2502841979,.3329634109,.6785615829
-.2765019369,.3472358579,.7484513355
-.3038355489,.3597186438,.8188053832
-.338590773e-1,.1076918624,-.1251861510
-.449576633e-1,.1462127612,-.3131305397e-1
-.584502512e-1,.1808941026,.5582475115e-1
-.739054173e-1,.2124278156,.1380517108
-.910401955e-1,.2412677291,.2165973945
-.1096601675,.2677256521,.2923484552
-.1296282145,.2920215022,.3659805728
-.1508468825,.3143115774,.4380341746
-.1732479195,.3347053401,.5089613745
-.1967859135,.3532756258,.5791572597
-.2214344795,.3700647510,.6489824015
-.2471841955,.3850878245,.7187806044
-.2740418975,.3983338858,.7888944752
-.135048239e-1,.1333092070,-.1718833679
-.232742283e-1,.1739618776,-.7397432373e-1
-.357200417e-1,.2103220604,.1601679666e-1
-.503051008e-1,.2432512726,.1003457642
-.666876123e-1,.2732976877,.1804758160
-.846371092e-1,.3008309357,.2574315039
-.1039926424,.3261091494,.3319746514
-.1246399567,.3493155739,.4047013913
-.1464982175,.3705798556,.4761002664
-.1695119965,.3899908890,.5465896578
-.1936464125,.4076046181,.6165437585
-.2188843245,.4234485366,.6863121499
-.2452250175,.4375237880,.7562361140
.43886692e-2,.1572224260,-.2257574918
-.37056014e-2,.2005617160,-.1225078535
-.148773513e-1,.2389652716,-.2885121239e-1
-.284284622e-1,.2735527527,.5813160224e-1
-.439328125e-1,.3050075843,.1402435379
-.611104679e-1,.3337787293,.2187022105
-.797689101e-1,.3601749546,.2943871051
-.997722942e-1,.3844141295,.3679693666
-.1210240815,.4066510867,.4399864786
-.1434567152,.4269941750,.5108886328
-.1670253436,.4455153281,.5810696998
-.1917040665,.4622560860,.6508895731
-.2174839118,.4772308387,.7206918232
.192700366e-1,.1786739180,-.2887599336
.133676687e-1,.2255286327,-.1781581653
.37850865e-2,.2664809338,-.7966687521e-1
-.85161184e-2,.3030730431,.1073003849e-1
-.229824234e-1,.3361927160,.9535545046e-1
-.392631953e-1,.3664023033,.1757079802
-.571226668e-1,.3940799359,.2528326809
-.763964476e-1,.4194892663,.3275040312
-.969678938e-1,.4428173705,.4003262946
-.1187544086,.4641967191,.4717933267
-.1416991856,.4837184200,.5423269463
-.1657661923,.5014402625,.6123034242
-.1909372594,.5173913872,.6820733521
.302521456e-1,.1963991094,-.3641815698
.273902776e-1,.2481302501,-.2428285165
.198630226e-1,.2923789316,-.1377138012
.91109130e-2,.3314555185,-.4280732972e-1
-.41058052e-2,.3665793060,.4506769742e-1
-.193298875e-1,.3984836379,.1278406268
-.362637150e-1,.4276458393,.2067988956
-.547037592e-1,.4543923351,.2828637304
-.745068049e-1,.4789528192,.3567325789
-.955710529e-1,.5014905554,.4289599945
-.1178249651,.5221202814,.5000073312
-.1412204833,.5409190722,.5702755268
-.1657289535,.5579328858,.6401284840
.356951026e-1,.2079662909,-.4584116011
.374875136e-1,.2671620725,-.3196699990
.327698906e-1,.3159169076,-.2049476274
.240088916e-1,.3581868823,-.1038551372
.123361551e-1,.3957869435,-.1166368417e-1
-.16181905e-2,.4297277081,.7426486866e-1
-.174629545e-1,.4606365773,.1555922102
-.349384036e-1,.4889301122,.2334566644
-.538647704e-1,.5148966346,.3086898093
-.741148434e-1,.5387401642,.3819323953
-.955983077e-1,.5606055520,.4537021129
-.1182523697,.5805935084,.5244362505
-.1420360543,.5987697498,.5945205935
.316086666e-1,.2072267725,-.5877974407
.420979026e-1,.2803707245,-.4146124615
.415889046e-1,.3358754511,-.2845886884
.355325656e-1,.3824832227,-.1745153550
.258412746e-1,.4232611721,-.7636329737e-1
.134559995e-1,.4597184494,.1379737481e-1
-.10793009e-2,.4927274647,.9825027996e-1
-.174191554e-1,.5228422933,.1784733773
-.353308881e-1,.5504361090,.2554997590
-.546521130e-1,.5757693470,.3300965206
-.752675773e-1,.5990268538,.4028631889
-.970957087e-1,.6203394564,.4742905210
-.1200805030,.6397969769,.5447983334
-.196998588e-1+.6858542186e-2*I,.1340500124+.1099989000e-1*I,-.9162978578+.3033923567e-1*I
.376871376e-1,.2824096861,-.5418408163
.447042066e-1,.3499848956,-.3826406049
.426701846e-1,.4030437525,-.2582678404
.356723386e-1,.4481415135,-.1513877590
.253066736e-1,.4878378874,-.5531288874e-1
.123951549e-1,.5234511624,.3339021623e-1
-.25747475e-2,.5557631531,.1167740542
-.192885087e-1,.5852783040,.1961931385
-.375321966e-1,.6123397204,.2726084015
-.571556991e-1,.6371881585,.3467421568
-.780523420e-1,.6599947039,.4191650595
-.1001469252,.6808799653,.4903489878
.4536333e-3+.7901910892e-1*I,.1792053641+.1267326908*I,-.9162978576+.3428441014*I
.76882253e-2,.2471294415,-.7719161653
.385494076e-1,.3529463961,-.5131768746
.436300226e-1,.4174158745,-.3616524352
.406575306e-1,.4689695932,-.2407001650
.330585536e-1,.5131032441,-.1358228620
.222536906e-1,.5520952235,-.4107460706e-1
.89951053e-2,.5871518635,.4668783985e-1
-.62639661e-2,.6190000791,.1293775209
-.232281665e-1,.6481135681,.2082729242
-.416953682e-1,.6748165094,.2842899500
-.615232879e-1,.6993370978,.3581226935
-.826107917e-1,.7218375362,.4303235458
.189254966e-1+.1159710390*I,.2259487052+.1859970587*I,-.9162978574+.4928843302*I
-.63608252e-2+.7541387070e-1*I,.2417149817+.1209505257*I,-.9162978572+.3277502228*I
.80722072e-2,.3211840854,-.7396523594
.344194466e-1,.4197614716,-.5002288830
.386765786e-1,.4829102308,-.3519374640
.352851976e-1,.5337921239,-.2324967064
.274125386e-1,.5774868392,-.1285213737
.164055059e-1,.6161545724,-.3437654973e-1
.29860180e-2,.6509531543,.5295554804e-1
-.124077927e-1,.6825852710,.1353265827
-.294891341e-1,.7115108852,.2139812062
-.480612027e-1,.7380456384,.2898151171
-.679852743e-1,.7624120159,.3635096911
.354070566e-1+.1479993060*I,.2745715218+.2373647405*I,-.9162978578+.6152323861*I
.101207353e-1+.1167613256*I,.2903377982+.1872645388*I,-.9162978574+.4959929646*I
-.151655872e-1+.7654913784e-1*I,.3061040747+.1227712935*I,-.9162978578+.3325111201*I
-.28152900e-2,.3822328395,-.7490048818
.247915966e-1,.4828304782,-.5042065975
.292984846e-1,.5463797987,-.3549367218
.260354146e-1,.5974674807,-.2350340043
.182469396e-1,.6412972124,-.1307818981
.73022406e-2,.6800649190,-.3645151633e-1
-.60675603e-2,.7149431889,.5101307892e-1
-.214197177e-1,.7466421104,.1334822904
-.384648161e-1,.7756258531,.2122111251
-.570044172e-1,.8022126782,.2881014729
.494476716e-1+.1787582648*I,.3254993632+.2866966765*I,-.9162978577+.7255237143*I
.241613496e-1+.1520404929*I,.3412656401+.2438460908*I,-.9162978574+.6301289719*I
-.11249723e-2+.1215535149*I,.3570319161+.1949503638*I,-.9162978578+.5147480578*I
-.264112947e-1+.8325474876e-1*I,.3727981928+.1335259088*I,-.9162978577+.3604815128*I
-.313162631e-1,.4212525599,-.8260030503
.82510382e-2,.5410325892,-.5296340210
.144235789e-1,.6072533237,-.3737934118
.119882208e-1,.6596685081,-.2508890396
.47353335e-2,.7043572288,-.1448622308
-.58158517e-2,.7437560617,-.4935032092e-1
-.188735577e-1,.7791348765,.3895452882e-1
-.339650157e-1,.8112519133,.1220448705
-.507838917e-1,.8405984771,.2012426841
-.289862270e-1,.824665033e-1,-.1073635794e-1
-.429620690e-1,.1163727934,.7513667548e-1
-.588250530e-1,.1472524373,.1564225908
-.763164940e-1,.1755203274,.2342556442
-.952572830e-1,.2014637159,.3094649195
-.1155206650,.2252859008,.3826895989
-.1370166520,.2471312052,.4544463382
-.1596827020,.2670999340,.5251717552
-.1834780480,.2852574716,.5952512182
-.2083803400,.3016396643,.6650399832
-.2343839170,.3162555903,.7348802344
-.2614993830,.3290882429,.8051164499
-.2897544070,.3400932459,.8761110578
-.47581972e-2,.1107737240,-.4649844950e-1
-.178853906e-1,.1460410938,.4161813648e-1
-.330347526e-1,.1780652623,.1245695316
-.499037833e-1,.2073313880,.2036625179
-.682859363e-1,.2341707309,.2798298053
-.880359913e-1,.2588162023,.3537760481
-.1090507253,.2814333495,.4260604766
-.1312575303,.3021386276,.4971474967
-.1546074903,.3210104870,.5674399950
-.1790712183,.3380960581,.6373029917
-.2046365383,.3534148711,.7070819818
-.2313075593,.3669603343,.7771187160
-.2591049883,.3786992389,.8477665096
.176879756e-1,.1383087740,-.8713656308e-1
.55783950e-2,.1752082143,.3802238225e-2
-.87310936e-2,.2085793920,.8882250701e-1
-.248778642e-1,.2390038942,.1694709669
-.426190029e-1,.2668713119,.2468203876
-.617855025e-1,.2924527013,.3216622945
-.822575298e-1,.3159402548,.3946118810
-.1039501452,.3374702009,.4661701477
-.1268047162,.3571365771,.5367635381
-.1507836922,.3749996052,.6067711427
-.1758675572,.3910905863,.6765449597
-.2020533302,.4054143023,.7464265092
-.2293543402,.4179493752,.8167621172
.381005986e-1,.1647548256,-.1334436654
.272295926e-1,.2036407235,-.3889334104e-1
.139184450e-1,.2386130640,.4872811981e-1
-.13845947e-2,.2703907616,.1313134804
-.183869896e-1,.2994429928,.2101300815
-.368883612e-1,.3260911311,.2860871770
-.567475941e-1,.3505614984,.3598746823
-.778643855e-1,.3730149658,.4320422777
-.1001683231,.3935644600,.5030481187
-.1236122540,.4122856061,.5732911175
-.1481682981,.4292231193,.6431340127
-.1738256572,.4443943178,.7129214000
-.2005897992,.4577904314,.7829954050
.561316476e-1,.1896629036,-.1865643044
.468026146e-1,.2310218514,-.8727723273e-1
.346966626e-1,.2679271132,.3671878577e-2
.203901386e-1,.3013030445,.8869964722e-1
.42458963e-2,.3317316030,.1693537245
-.134930115e-1,.3596025979,.2467074081
-.326574914e-1,.3851872284,.3215525544
-.531276479e-1,.4086777822,.3945045599
-.748184983e-1,.4302105601,.4660645646
-.976713738e-1,.4498796547,.5366590987
-.1216486967,.4677453342,.6066673088
-.1467309252,.4838389401,.6764412191
-.1729150538,.4981652932,.7463223550
.712769146e-1,.2123607610,-.2482336924
.639331606e-1,.2569037471,-.1425096338
.533155866e-1,.2961961033,-.4719826796e-1
.402054186e-1,.3314907795,.4096438480e-1
.250702516e-1,.3635377150,.1239497918
.82135215e-2,.3928235671,.2030684403
-.101576499e-1,.4196805231,.2792552442
-.298976571e-1,.4443421081,.3532162359
-.509030087e-1,.4669743052,.4255115407
-.731008896e-1,.4876938954,.4966061449
-.964422222e-1,.5065795911,.5669033082
-.1208974812,.5236787452,.6367682681
-.1464543630,.5390110920,.7065466078
.827517426e-1,.2317604499,-.3212850079
.780982376e-1,.2806181221,-.2063369861
.693809506e-1,.3229582021,-.1051043055
.577413066e-1,.3606113403,-.1281699386e-1
.438137316e-1,.3945950411,.7318080434e-1
.279916506e-1,.4255402872,.1545597883
.105360992e-1,.4538657359,.2324633944
-.83723241e-2,.4798610345,.3077262913
-.286058453e-1,.5037311113,.3809912096
-.500737389e-1,.5256214720,.4527771222
-.727128967e-1,.5456333319,.5235221550
-.964820856e-1,.5638328212,.5936126146
-.1213585494,.5802564380,.6634042577
.891850496e-1,.2458772980,-.4109259335
.884939496e-1,.3010899649,-.2815825892
.823274776e-1,.3475211047,-.1718861862
.725581566e-1,.3881739088,-.7397688397e-1
.601124086e-1,.4245341959,.1601441882e-1
.455274026e-1,.4574634925,.1003435162
.291449366e-1,.4875099816,.1804736694
.111954805e-1,.5150432941,.2574294316
-.81600161e-2,.5403215669,.3319726368
-.288072965e-1,.5635280465,.4046994203
-.506655244e-1,.5847923797,.4760983250
-.736792724e-1,.6042034628,.5465877355
-.978136586e-1,.6218172407,.6165418461
.876111606e-1,.2502270527,-.5290303719
.937427196e-1,.3163820602,-.3733523290
.912875746e-1,.3687655105,-.2505201373
.840220346e-1,.4134339379,-.1445355259
.734616146e-1,.4528179594,-.4905154140e-1
.603966156e-1,.4881850785,.3923351967e-1
.452990836e-1,.5202923741,.1223092608
.284749496e-1,.5496305048,.2014960614
.101328702e-1,.5765341197,.2777346939
-.95805299e-2,.6012383783,.3517348605
-.305610378e-1,.6239104185,.4240590607
-.527352985e-1,.6446678919,.4951738416
-.760538009e-1,.6635902033,.5654834511
.667201636e-1,.2270217647,-.7234328821
.909729856e-1,.3222400771,-.4929171703
.947782846e-1,.3846641728,-.3463911263
.911519586e-1,.4351692572,-.2277938201
.831243486e-1,.4786154592,-.1243263381
.720022406e-1,.5170986322,-.3052289938e-1
.584908476e-1,.5517498141,.5656504982e-1
.430198836e-1,.5832581904,.1387550183
.258713376e-1,.6120760220,.2172727228
.72390156e-2,.6385141384,.2930025072
-.127403730e-1,.6627917974,.3666185891
-.339696692e-1,.6850648266,.4386604503
-.563808448e-1,.7054423304,.5095795862
.430183006e-1+.6631786684e-1*I,.2031974778+.1063621423*I,-.9162978578+.2893520914*I
.704674166e-1,.3035420794,-.6808128412
.897234096e-1,.3907463609,-.4713831580
.922502826e-1,.4511200873,-.3298170427
.879393616e-1,.5005272002,-.2136590416
.794543066e-1,.5432397415,-.1116786053
.679899026e-1,.5811739324,-.1888149757e-1
.542037686e-1,.6153844794,.6748392351e-1
.385013346e-1,.6465216182,.1491368386
.211506126e-1,.6750151951,.2272480174
.23366220e-2,.7011619469,.3026686958
-.178098597e-1,.7251716190,.3760521339
-.391959361e-1,.7471932003,.4479241682
.608665576e-1+.1083026838*I,.2505297014+.1736983715*I,-.9162978577+.4624928335*I
.355802356e-1+.6383491466e-1*I,.2662959776+.1023799258*I,-.9162978575+.2787957564*I
.658144306e-1,.3711073542,-.6681215768
.837132196e-1,.4561349198,-.4643727788
.858399566e-1,.5158669008,-.3243478232
.813086846e-1,.5649206099,-.2089689292
.726745106e-1,.6073939898,-.1074692008
.610976966e-1,.6451478947,-.1499953690e-1
.472208936e-1,.6792130250,.7112988061e-1
.314417986e-1,.7102272150,.1526069940
.140239362e-1,.7386131088,.2305849711
-.48505181e-2,.7646628879,.3059043959
-.250527155e-1,.7885832029,.3792117570
.765939396e-1+.1427695675*I,.2998647006+.2289771640*I,-.9162978576+.5957727071*I
.513076176e-1+.1104616174*I,.3156309772+.1771609197*I,-.9162978574+.4710906236*I
.260212956e-1+.6721264388e-1*I,.3313972532+.1077972067*I,-.9162978578+.2931486386*I
.524025566e-1,.4300292046,-.6856685748
.721929886e-1,.5180906304,-.4739960275
.748709636e-1,.5787066991,-.3318464874
.706424966e-1,.6282460538,-.2153961797
.622130056e-1,.6710477086,-.1132361132
.507903826e-1,.7090489101,-.2031691110e-1
.370378946e-1,.7433134168,.6613639370e-1
.213638726e-1,.7744961244,.1478547295
.40380117e-2,.8030295739,.2260154582
-.147536073e-1,.8292122068,.3014738089
-.36809570e-2,.817389842e-1,.5745042381e-1
-.191707970e-1,.1132170863,.1395962484
-.363357990e-1,.1420085252,.2180805608
-.549828860e-1,.1684229620,.2937849520
-.749758370e-1,.1926788695,.3673819016
-.962178440e-1,.2149315117,.4394097588
-.1186411460,.2352895663,.5103192828
-.1422007260,.2538252322,.5805046994
-.1668705400,.2705802792,.6503261030
-.1926414820,.2855693090,.7201271304
-.2195207030,.2987808570,.7902505116
-.2475321400,.3101765295,.8610535033
-.2767183820,.3196880226,.9329251911
.220569386e-1,.1111162081,.2574265569e-1
.72554341e-2,.1436982797,.1095371055
-.93130910e-2,.1734463628,.1892653716
-.274275880e-1,.2007149792,.2659157005
-.469332620e-1,.2257523939,.3402274150
-.677201500e-1,.2487349657,.4127821550
-.897106020e-1,.2697872355,.4840589837
-.1128516960,.2889940792,.5544701754
-.1371106520,.3064080691,.6243862632
-.1624722150,.3220536725,.6941551213
-.1889374920,.3359291129,.7641180489
-.2165240370,.3480062364,.8346250269
-.2452671940,.3582283605,.9060510751
.462279676e-1,.1400187816,-.1015943319e-1
.322387666e-1,.1739036429,.7567912342e-1
.163644525e-1,.2047651180,.1569393161
-.11369320e-2,.2330170586,.2347528647
-.200866935e-1,.2589460589,.3099473208
-.403583552e-1,.2827549644,.3831608811
-.618621338e-1,.3045877727,.4549095666
-.845356448e-1,.3245445356,.5256295753
-.1083382498,.3426904322,.5957060210
-.1332477108,.3590611274,.6654940201
-.1592584718,.3736655302,.7353357240
-.1863812458,.3864864617,.8055756758
-.2146438188,.3974793587,.8765764741
.686495326e-1,.1682278498,-.5079201443e-1
.556270606e-1,.2036631734,.3760855136e-1
.405649316e-1,.2358272507,.1207694879
.237714396e-1,.2652145261,.2000205412
.54566944e-2,.2921619802,.2763080359
-.142317172e-1,.3169063151,.3503451439
-.351889030e-1,.3396157612,.4226966168
-.573409960e-1,.3604087869,.4938304660
-.806380793e-1,.3793654505,.5641518818
-.1050499138,.3965342501,.6340272245
-.1305635444,.4119359633,.7038025415
-.1571823194,.4255652200,.7738194181
-.1849261404,.4373901018,.8444302737
.890792306e-1,.1954484802,-.9689737599e-1
.772233306e-1,.2327547815,-.5234030821e-2
.631204786e-1,.2664573668,.8031236819e-1
.471496756e-1,.2971640901,.1613543928
.295635126e-1,.3252800627,.2390024837
.105372086e-1,.3510862995,.3140712195
-.98051401e-2,.3747818365,.3871905354
-.313754763e-1,.3965078976,.4588710504
-.541127500e-1,.4163623967,.5295454578
-.779774177e-1,.4344087559,.5995966955
-.1029482023,.4506810980,.6693787347
-.1290204548,.4651868801,.7392334621
-.1562058051,.4779074511,.8095060044
.1071861436,.2212675724,-.1495340939
.967675716e-1,.2608790946,-.5362014769e-1
.838144256e-1,.2964256059,.3496925238e-1
.688099466e-1,.3286821409,.1182693550
.520663086e-1,.3581493741,.1976253318
.337960056e-1,.3851681040,.2739926099
.141481984e-1,.4099775627,.3480900623
-.67711074e-2,.4327477621,.4204861207
-.288872119e-1,.4535985067,.4916512052
-.521495356e-1,.4726109189,.5619920496
-.765272760e-1,.4898343992,.6318759131
-.1020069666,.5052905461,.7016492250
-.1285914554,.5189747920,.7716534835
.1224990866,.2450763366,-.2102803613
.1139064776,.2876163791,-.1086468468
.1023610376,.3254206016,-.1608594690e-1
.885095626e-1,.3595263528,.7010927260e-1
.727518956e-1,.3905749097,.1516354226
.553528086e-1,.4189909180,.2296505602
.364952706e-1,.4450678263,.3049982292
.163086660e-1,.4690131484,.3783268046
-.51151135e-2,.4909742608,.4501589386
-.277120627e-1,.5110538158,.5209351517
-.514402169e-1,.5293191181,.5910432451
-.762761792e-1,.5458076911,.6608397764
-.1022133094,.5605301867,.7306672784
.1343033056,.2659122760,-.2816498113
.1281392896,.3123473525,-.1719450172
.1183717106,.3530029508,-.7403030167e-1
.1059273136,.3893654053,.1596478096e-1
.913434186e-1,.4222964852,.1002966441
.749619056e-1,.4523445025,.1804288718
.570132946e-1,.4798791688,.2573862108
.376585646e-1,.5051586717,.3319306111
.170119968e-1,.5283662938,.4046582849
-.48455574e-2,.5496317081,.4760578243
-.278586569e-1,.5690438313,.5465476445
-.519924090e-1,.5866586255,.6165019586
-.772296612e-1,.6025036009,.6862703594
.1414008046,.2820857580,-.3680795088
.1387107286,.3340924224,-.2461027635
.1312943986,.3785190073,-.1406200373
.1206236886,.4177261451,-.4546882485e-1
.1074714766,.4529533883,.4258014017e-1
.923012456e-1,.4849440885,.1254815986
.754141276e-1,.5141812034,.2045368963
.570158206e-1,.5409946382,.2806755223
.372509846e-1,.5656164021,.3546001084
.162224414e-1,.5882114041,.4268685763
-.59974972e-2,.6088956183,.4979444742
-.293601558e-1,.6277471106,.5682301403
-.538363528e-1,.6448126844,.6380902832
.1413999296,.2900566981,-.4789254326
.1443659386,.3511347231,-.3356616265
.1402934976,.4009243166,-.2186570627
.1319687996,.4438940399,-.1161574582
.1206248226,.4820213757,-.2300787428e-1
.1069355816,.5163873208,.6361109664e-1
.913149216e-1,.5476556103,.1454526781
.740357186e-1,.5762638916,.2237067351
.552860616e-1,.6025138238,.2992360424
.351988046e-1,.6266184826,.3727011727
.138683422e-1,.6487292576,.4446327271
-.86394069e-2,.6689518736,.5154764090
-.322809176e-1,.6873561370,.5856232651
.1272140116,.2788433192,-.6435411632
.1426390946,.3599034968,-.4500871988
.1439734976,.4183647131,-.3130971068
.1389972576,.4667047724,-.1992821843
.1300591686,.5086907262,-.9875583440e-1
.1182520006,.5460751846,-.6952384919e-2
.1041887156,.5798412293,.7869550650e-1
.882515296e-1,.6106018669,.1598133498
.706949196e-1,.6387652355,.2375189497
.516953086e-1,.6646142858,.3126313815
.313776206e-1,.6883493735,.3857834372
.98305126e-2,.7101126878,.4574876117
-.128845023e-1,.7300028867,.5281778145
.853867906e-1+.5149831184e-1*I,.2273748463+.8259419431e-1*I,-.9162978574+.2259146987*I
.1265023726,.3496380453,-.6181205028
.1395679086,.4269139276,-.4344057876
.1400664696,.4840345992,-.3005915002
.1346083006,.5316017310,-.1884558849
.1253368476,.5730530276,-.8898721150e-1
.1132750756,.6100291470,.2087522090e-2
.990046136e-1,.6434629181,.8720665796e-1
.828911316e-1,.6739408067,.1679291352
.651793456e-1,.7018553023,.2453347488
.460394266e-1,.7274793219,.3202193197
.255920066e-1,.7510063416,.3932007966
.39226112e-2,.7725735298,.4647819797
.1025732966+.1006072618*I,.2753319717+.1613562743*I,-.9162978573+.4315876323*I
.772869736e-1+.5068561140e-1*I,.2910982486+.8129076646e-1*I,-.9162978571+.2224075950*I
.1189827946,.4142920464,-.6154337659
.1318099786,.4911856541,-.4326980452
.1322195676,.5481636337,-.2992201720
.1267093386,.5956472686,-.1872650334
.1174016126,.6370403909,-.8791079595e-1
.1053120166,.6739718850,.3084793709e-2
.910188476e-1,.7073692345,.8814637156e-1
.748859986e-1,.7378160652,.1688257652
.571571386e-1,.7657031748,.2461986677
.380017586e-1,.7913023995,.3210584059
.175400269e-1,.8148064659,.3940213175
.199075376e-1,.791383274e-1,.1212468360
.31045410e-2,.1085103596,.2004779411
-.152186810e-1,.1354442177,.2767502643
-.349148410e-1,.1601761262,.3507759026
-.558792580e-1,.1828739754,.4231189062
-.780382230e-1,.2036559798,.4942468298
-.1013419450,.2226019951,.5645645724
-.1257602940,.2397603476,.6344383243
-.1512804110,.2551516581,.7042140612
-.1779057400,.2687704032,.7742333880
-.2056562840,.2805845029,.8448488332
-.2345701410,.2905328530,.9164405310
-.2647066100,.2985203508,.9894366322
.469586656e-1,.1092955013,.9294166882e-1
.307272956e-1,.1395843215,.1734029169
.129114830e-1,.1673319735,.2506101884
-.63226950e-2,.1928048217,.3253441964
-.268574210e-1,.2161918180,.3982132027
-.486092390e-1,.2376268142,.4697136795
-.715206700e-1,.2572019960,.5402691361
-.955551230e-1,.2749760493,.6102568740
-.1206939310,.2909789123,.6800279920
-.1469349210,.3052140687,.7499238908
-.1742922540,.3176588090,.8202915377
-.2027974950,.3282625064,.8914994384
-.2325021290,.3369425922,.9639564451
.726029386e-1,.1391948886,.6091441719e-1
.570394286e-1,.1705548380,.1428885478
.398101486e-1,.1992431870,.2212429436
.211053536e-1,.2255650701,.2968485429
.10593630e-2,.2497359112,.3703710907
-.202323789e-1,.2719087875,.4423445545
-.427031499e-1,.2921907113,.5132168336
-.663087719e-1,.3106525334,.5833803522
-.910239279e-1,.3273348580,.6531942004
-.1168401879,.3422512076,.7230016795
-.1437653709,.3553890402,.7931458066
-.1718241359,.3667088070,.8639847834
-.2010599019,.3761408749,.9359094329
.967018506e-1,.1686767749,.2478598887e-1
.819215226e-1,.2012928082,.1086323983
.653712286e-1,.2310701318,.1883997590
.472729266e-1,.2583647220,.2650798049
.277820066e-1,.2834257991,.3394140297
.70088472e-2,.3064303905,.4119854743
-.149685901e-1,.3275035335,.4832741152
-.380971391e-1,.3467304963,.5536928154
-.623438146e-1,.3641641821,.6236124598
-.876931755e-1,.3798293557,.6933810808
-.1141461485,.3937245283,.7633399678
-.1417201025,.4058218466,.8338389195
-.1704501705,.4160649648,.9052525805
.1190760296,.1975337240,-.1595577192e-1
.1052215186,.2316346047,.7023155260e-1
.894612826e-1,.2626790418,.1517518199
.720599456e-1,.2910914408,.2297624995
.532003796e-1,.3171650985,.3051067816
.330119066e-1,.3411074239,.3784328112
.115863718e-1,.3630657195,.4502630949
-.110122573e-1,.3831425806,.5210380581
-.347420440e-1,.4014052644,.5911454409
-.595796176e-1,.4178912539,.6609417699
-.855183606e-1,.4326111621,.7307695659
-.1125679111,.4455495306,.8009727509
-.1407548915,.4566636641,.8719122357
.1394893466,.2254882956,-.6201459618e-1
.1267436276,.2613674836,.2714372859e-1
.1119111546,.2938998880,.1108623211
.953159546e-1,.3236051881,.1905334988
.771777536e-1,.3508357869,.2671404318
.576504786e-1,.3758385563,.3414192781
.368434826e-1,.3987888801,.4139496408
.148339654e-1,.4198105731,.4852092466
-.83255089e-2,.4389879376,.5556095142
-.326024622e-1,.4563730627,.6255204665
-.579819109e-1,.4719899802,.6952897467
-.844652260e-1,.4858364908,.7652586745
-.1120702367,.4978840005,.8357775010
.1576227476,.2521554750,-.1143844040
.1462309946,.2902061858,-.2137486176e-1
.1325033446,.3245105302,.6514343489e-1
.1168502866,.3557268593,.1469101285
.995427616e-1,.3842897168,.2251074834
.807676366e-1,.4104988024,.3005936767
.606569416e-1,.4345658699,.3740263758
.393044746e-1,.4566413555,.4459342871
.167757034e-1,.4768302552,.5167618758
-.68862177e-2,.4952017833,.5868994130
-.316568561e-1,.5117951252,.6567048006
-.575286025e-1,.5266224832,.7265209619
-.845101012e-1,.5396699963,.7966913036
.1730281166,.2769747958,-.1745275236
.1633371876,.3177533264,-.7637433655e-1
.1509521926,.3542110529,.1378712085e-1
.1364171226,.3872204371,.9824059950e-1
.1200774656,.4173355827,.1784641294
.1021659076,.4449296779,.2554908370
.828448406e-1,.4702631702,.3300878475
.622295236e-1,.4935209135,.4028547022
.404015306e-1,.5148337395,.4742821670
.174168711e-1,.5342914741,.5447900637
-.66890910e-2,.5519508392,.6147534557
-.318987791e-1,.5678400224,.6845223426
-.582110655e-1,.5819608335,.7544380281
.1850390436,.2990758401,-.2447284442
.1775760666,.3434276136,-.1394005959
