-.468288049e-1,.6242994766,-.3343379273
-.481260816e-1,.6487240422,-.2770759327
-.506730781e-1,.6719809381,-.2223033135
-.543243572e-1,.6942060519,-.1695747467
-.589687013e-1,.7155032997,-.1185444940
-.645192771e-1,.7359538146,-.6893646599e-1
-.709072401e-1,.7556219206,-.2052476157e-1
-.780774209e-1,.7745591648,.2687950429e-1
-.859853285e-1,.7928071167,.7343741928e-1
-.945950194e-1,.8103993604,.1192889386
-.1038775555,.8273629349,.1645578278
-.615321569e-1,.5762199103,-.5288295509
-.575317373e-1,.6055943550,-.4594205278
-.556521660e-1,.6329871943,-.3951369052
-.554927750e-1,.6587727909,-.3347670689
-.567802693e-1,.6832064970,-.2774849095
-.593187066e-1,.7064713895,-.2226958537
-.629623509e-1,.7287036373,-.1699536965
-.675997751e-1,.7500073501,-.1189121021
-.731439940e-1,.7704638032,-.6929455073e-1
-.795260501e-1,.7901374293,-.2087482265e-1
-.866906852e-1,.8090798551,.2653619447e-1
-.945933392e-1,.8273327154,.7309976659e-1
-.1031980127,.8449296486,.1189559864
-.788285791e-1,.5781984968,-.6085781918
-.719463937e-1,.6102655056,-.5317868441
-.678484138e-1,.6397311050,-.4621351521
-.658914650e-1,.6671962422,-.3976699753
-.656680570e-1,.6930416528,-.3371589536
-.669009062e-1,.7175264159,-.2797639722
-.693915561e-1,.7408359587,-.2248829764
-.729925910e-1,.7631080180,-.1720648376
-.775914108e-1,.7844478019,-.1209598289
-.831001784e-1,.8049373799,-.7128902824e-1
-.894492974e-1,.8246417801,-.2282446149e-1
-.965830183e-1,.8436130892,.2462429248e-1
-.1044563926,.8618933074,.7121949378e-1
-.1025453686,.5754973628,-.7033168487
-.913728073e-1,.6115730653,-.6148841547
-.842378491e-1,.6438762515,-.5374262275
-.799520269e-1,.6735173608,-.4673057346
-.778465374e-1,.7011212857,-.4024907981
-.775004993e-1,.7270812754,-.3417083039
-.786288410e-1,.7516636848,-.2840966837
-.810282145e-1,.7750585103,-.2290393246
-.845479487e-1,.7974065341,-.1760755292
-.890731724e-1,.8188150818,-.1248490226
-.945144048e-1,.8393677616,-.7507622485e-1
-.1008008189,.8591307480,-.2652577764e-1
-.1078757204,.8781570162,.2099527261e-1
-.54555000e-2,.4639223944,.2396312479e-1
-.133187390e-1,.4822120815,.7056931206e-1
-.218857760e-1,.4998441793,.1164609320
-.311272740e-1,.5168460978,.1617626332
-.410198320e-1,.5332397003,.2065864470
-.515451450e-1,.5490420911,.2510347937
-.626893820e-1,.5642661936,.2952029149
-.744427460e-1,.5789211611,.3391808993
-.867991740e-1,.5930126579,.3830554373
-.997561600e-1,.6065430270,.4269114041
-.1133146750,.6195113587,.4708333503
-.1274792050,.6319134644,.5149069811
-.1422578720,.6437417529,.5592206860
.22065750e-2,.4795209000,-.1261969074e-1
-.50884370e-2,.4983415085,.3463411680e-1
-.131146886e-1,.5164788864,.8106603029e-1
-.218374885e-1,.5339654473,.1268130211
-.312289396e-1,.5508272577,.1719965667
-.412668656e-1,.5670850366,.2167262697
-.519340256e-1,.5827548939,.2611027227
-.632175386e-1,.5978488637,.3052198274
-.751084796e-1,.6123752864,.3491667548
-.876016076e-1,.6263390588,.3930296462
-.1006952076,.6397417817,.4368931739
-.1143910476,.6525818057,.4808420215
-.1286944216,.6648541822,.5249623650
.86240890e-2,.4946726454,-.5074710697e-1
.19384900e-2,.5140626557,-.2731666451e-2
-.55116105e-2,.5327383584,.4433928088e-1
-.136851220e-1,.5507381446,.9061826531e-1
-.225488702e-1,.5680930112,.1362386943
-.320762230e-1,.5848278420,.1813193114
-.422460866e-1,.6009623461,.2259676345
-.530421659e-1,.6165117479,.2702826879
-.644524307e-1,.6314872883,.3143572413
-.764687387e-1,.6458965749,.3582797008
-.890865900e-1,.6597438122,.4021357798
-.1023049944,.6730299253,.4460100317
-.1161264434,.6857525862,.4899873261
.137062400e-1,.5093175309,-.9059227033e-1
.76790020e-2,.5293226783,-.4167968068e-1
.8467530e-3,.5485756678,.6146304653e-2
-.67416250e-2,.5671221714,.5305805063e-1
-.150466495e-1,.5849990787,.9920410864e-1
-.240364624e-1,.6022361574,.1447148394
-.336855358e-1,.6188572595,.1897066480
-.439737227e-1,.6348812080,.2342852701
-.548855627e-1,.6503224495,.2785484037
-.664097775e-1,.6651915215,.3225878650
-.785389213e-1,.6794953803,.3664914335
-.912691584e-1,.6932376106,.4103444926
-.1046001496,.7064185288,.4542315423
.173455270e-1,.5233835501,-.1323665739
.120356010e-1,.5440589150,-.8239338295e-1
.58709480e-2,.5639356698,-.3367422710e-1
-.10898602e-2,.5830685403,.1398886391e-1
-.87996515e-2,.6015016014,.6076383792e-1
-.172203159e-1,.6192704613,.1067958846
-.263211242e-1,.6364038321,.1522127851
-.360774992e-1,.6529246769,.1971289663
-.464701140e-1,.6688510537,.2416486656
-.574842324e-1,.6841967319,.2858684649
-.691092324e-1,.6989716356,.3298793885
-.813382795e-1,.7131821502,.3737687106
-.941681232e-1,.7268313132,.4176215642
.194130770e-1,.5367829968,-.1763316036
.148925630e-1,.5581959458,-.1250972932
.94556510e-2,.5787526619,-.7531794644e-1
.31732460e-2,.5985193952,-.2676198295e-1
-.38978952e-2,.6175491755,.2076370820e-1
-.117120297e-1,.6358847443,.6742341255e-1
-.202321989e-1,.6535606331,.1133595230
-.294286243e-1,.6706046641,.1586976733
-.392775330e-1,.6870390503,.2035506511
-.497602941e-1,.7028812000,.2480214489
-.608627874e-1,.7181443054,.2922057268
-.725749527e-1,.7328377662,.3361938663
-.848904811e-1,.7469674778,.3800727382
.197520430e-1,.5494070054,-.2228164227
.161107440e-1,.5716414451,-.1700700889
.114754460e-1,.5929471450,-.1190250063
.59331790e-2,.6134054236,-.6940452495e-1
-.4470615e-3,.6330807438,-.2098233464e-1
-.76099931e-2,.6520247610,.2643075673e-1
-.155110337e-1,.6702791300,.7299606976e-1
-.241141655e-1,.6878775022,.1188537311
-.333903896e-1,.7048469737,.1641276425
-.433165933e-1,.7212091404,.2089292622
-.538747183e-1,.7369808737,.2533605754
-.650511552e-1,.7521748898,.2975165060
-.768363098e-1,.7668001538,.3414869231
.181679470e-1,.5611174166,-.2722434566
.155201870e-1,.5842801643,-.2176636939
.117789520e-1,.6064212291,-.1650946412
.70530230e-2,.6276422488,-.1141975848
.14274599e-2,.6480226991,-.6470143930e-1
-.50302244e-2,.6676256600,-.1638395934e-1
-.122658891e-1,.6865017200,.3094101836e-1
-.202358565e-1,.7046916865,.7743251464e-1
-.289048440e-1,.7222285269,.1232289078
-.382444621e-1,.7391387677,.1684527540
-.482321149e-1,.7554435189,.2132144774
-.588501959e-1,.7711592326,.2576152922
-.700854980e-1,.7862982486,.3017495532
.144139820e-1,.5717341706,-.3251688295
.129092560e-1,.5959649080,-.2683320518
.101804350e-1,.6190519168,-.2139065406
.63667370e-2,.6411252761,-.1614651842
.15750135e-2,.6622848194,-.1106748235
-.41110826e-2,.6826087115,-.6126832456e-1
-.106250962e-1,.7021590429,-.1302634350e-1
-.179137051e-1,.7209856338,.3423511047e-1
-.259338824e-1,.7391286874,.8067342470e-1
-.346508734e-1,.7566206765,.1264257211
-.440367274e-1,.7734877162,.1716135898
-.540692236e-1,.7897505685,.2163467249
-.647310815e-1,.8054253795,.2607257835
.81674760e-2,.5810147741,-.3823484405
.80079650e-2,.6065024071,-.3226763833
.64473570e-2,.6306809307,-.2659533635
.36694550e-2,.6537220799,-.2116208604
-.1881611e-3,.6757544037,-.1592565501
-.50197935e-2,.6968766598,-.1085305841
-.107426316e-1,.7171662226,-.5917820576e-1
-.172908560e-1,.7366845882,-.1098181002e-1
-.246116372e-1,.7554811188,.3624129937e-1
-.326623400e-1,.7735956516,.8264752491e-1
-.414085274e-1,.7910603606,.1283732309
-.508225146e-1,.8079011139,.1735394329
-.608823068e-1,.8241384622,.2182553827
-.10102629e-2,.5886186416,-.4448533769
.4610441e-3,.6156300211,-.3815202062
.2811231e-3,.6410985834,-.3218924905
-.12970158e-2,.6652607269,-.2652050886
-.40903245e-2,.6882874813,-.2109017181
-.79617330e-2,.7103069182,-.1585615487
-.128059037e-1,.7314174602,-.1078557631
-.185402887e-1,.7516962330,-.5852035017e-1
-.250992679e-1,.7712045498,-.1033824200e-1
-.324301663e-1,.7899916289,.3687285259e-1
-.404904701e-1,.8080971906,.8326902183e-1
-.492458427e-1,.8255533176,.1289863998
-.586686821e-1,.8423857995,.1741458190
-.137485015e-1,.5940399423,-.5142887681
-.102186103e-1,.6229747517,-.4460421085
-.87144183e-2,.6500168571,-.3826328534
-.88669128e-2,.6755110450,-.3229455462
-.104214961e-1,.6996951966,-.2662102811
-.131941049e-1,.7227412923,-.2118677600
-.170469833e-1,.7447780439,-.1594951485
-.218743090e-1,.7659043233,-.1087622463
-.275931809e-1,.7861975907,-.5940403899e-1
-.341377124e-1,.8057194084,-.1120272912e-1
-.414550197e-1,.8245191851,.3602451185e-1
-.495024258e-1,.8426367976,.8243419307e-1
-.582454596e-1,.8601044532,.1281627626
-.310225674e-1,.5964656495,-.5932597409
-.247378524e-1,.6279744165,-.5180327055
-.210882409e-1,.6570210847,-.4494915791
-.194881949e-1,.6841527523,-.3858600704
-.195608410e-1,.7097215442,-.3259988766
-.210469086e-1,.7339697142,-.2691240437
-.237593515e-1,.7570720264,-.2146674297
-.275584018e-1,.7791590704,-.1622003217
-.323368205e-1,.8003310459,-.1113884365
-.380106716e-1,.8206663800,-.6196384906e-1
-.445132870e-1,.8402273605,-.1370663674e-1
-.517911796e-1,.8590639643,.3356763255e-1
-.598011919e-1,.8772165154,.8001667340e-1
.343860110e-1,.4631752596,.7286951261e-1
.257847600e-1,.4807753897,.1187289378
.165103460e-1,.4977465528,.1640042924
.65858960e-2,.5141103580,.2088070621
-.39705180e-2,.5298836898,.2532392575
-.151452760e-1,.5450792753,.2973958185
-.269287720e-1,.5597060885,.3413666245
-.393151260e-1,.5737696249,.3852382391
-.523020020e-1,.5872720652,.4290954868
-.658905480e-1,.6002123380,.4730229411
-.800854250e-1,.6125860887,.5171064025
-.948949430e-1,.6243855517,.5614344375
-.1103313170,.6355993156,.6061000534
.431342170e-1,.4793233234,.3756524419e-1
.350633920e-1,.4974190545,.8395041552e-1
.262979530e-1,.5148657758,.1296586860
.168654100e-1,.5316891922,.1748106913
.67876100e-2,.5479097151,.2195153936
-.39184930e-2,.5635431855,.2638729027
-.152402790e-1,.5786013961,.3079767700
-.271690580e-1,.5930924648,.3519159265
-.396998140e-1,.6070210799,.3957763795
-.528310510e-1,.6203886375,.4396427578
-.665647540e-1,.6331932838,.4835997942
-.809064430e-1,.6454298603,.5277338097
-.958653420e-1,.6570897508,.5721342782
.507116760e-1,.4950789250,.8724868128e-3
.432053310e-1,.5137020757,.4787823979e-1
.349783500e-1,.5316519037,.9410276404e-1
.260633700e-1,.5489589020,.1396782127
.164865690e-1,.5656475314,.1847223652
.62686560e-2,.5817371400,.2293420082
-.45744165e-2,.5972426344,.2736356183
-.160309236e-1,.6121749683,.3176955687
-.280930070e-1,.6265414850,.3616100071
-.407564363e-1,.6403461367,.4054645048
-.540204853e-1,.6535896016,.4493435882
-.678879123e-1,.6662693039,.4933322113
-.823650373e-1,.6783793375,.5375172527
.570405520e-1,.5103918756,-.3735083484e-1
.501386820e-1,.5295798142,.1038656195e-1
.424845740e-1,.5480649037,.5722391254e-1
.341169650e-1,.5658833358,.1033079333
.250670980e-1,.5830643032,.1487675753
.153599850e-1,.5996311753,.1937181657
.50153260e-2,.6156023599,.2382646222
-.59518105e-2,.6309919352,.2825040303
-.175305019e-1,.6458101072,.3265277747
-.297136337e-1,.6600635228,.3704233554
-.424976864e-1,.6737554703,.4142760148
-.558826326e-1,.6868859760,.4581702473
-.698719355e-1,.6994518038,.5021912715
.620297320e-1,.5252029583,-.7727609635e-1
.557798390e-1,.5450000697,-.2867531150e-1
.487391770e-1,.5640583285,.1888811330e-1
.409538800e-1,.5824208417,.6557946434e-1
.324612230e-1,.6001224356,.1115418981
.232912440e-1,.6171911775,.1569016373
.134679390e-1,.6336494864,.2017719165
.30101290e-2,.6495149486,.2462560663
-.80678958e-2,.6648009163,.2904500006
-.197559199e-1,.6795169335,.3344442744
-.320474893e-1,.6936690310,.3783258664
-.449397179e-1,.7072599049,.4221797746
-.584332048e-1,.7202889963,.4660905149
.655714640e-1,.5394412882,-.1191122384
.600307060e-1,.5599009768,-.6948949390e-1
.536518670e-1,.5795776074,-.2106539725e-1
.464902520e-1,.5985228545,.2634929809e-1
.385904580e-1,.6167783877,.7291595317e-1
.299885170e-1,.6343778729,.1187747314
.207134390e-1,.6513484155,.1640495571
.107883460e-1,.6677116191,.2088519037
.2313038e-3,.6834843643,.2532837752
-.109440703e-1,.6986793741,.2974401053
-.227281752e-1,.7133056187,.3414107683
-.351151328e-1,.7273685905,.3852823262
-.481026130e-1,.7408704668,.4291396021
.675367520e-1,.5530206169,-.1631174070
.627749470e-1,.5742081157,-.1122786084
.571163830e-1,.5945577322,-.6283140947e-1
.506279950e-1,.6141320061,-.1455515097e-1
.433634760e-1,.6329811053,.3273514064e-1
.353661480e-1,.6511455081,.7919759596e-1
.266710060e-1,.6686579112,.1249699042
.173061990e-1,.6855446161,.1701740926
.72941180e-2,.7018265435,.2149201879
-.33478072e-2,.7175199787,.2593090994
-.146065292e-1,.7326371124,.3034349597
-.264729679e-1,.7471864286,.3473870957
-.389417361e-1,.7611729611,.3912517426
.677688680e-1,.5658340329,-.2096157322
.638728260e-1,.5878304548,-.1573186113
.590062560e-1,.6089200675,-.1066488235
.532512380e-1,.6291795620,-.5734366655e-1
.466730360e-1,.6486699194,-.9187041535e-2
.393240540e-1,.6674401009,.3800261755e-1
.312465850e-1,.6855296246,.8438085591e-1
.224747890e-1,.7029704057,.1300833843
.130361180e-1,.7197880961,.1752307167
.29523700e-2,.7360030622,.2199317210
-.77595436e-2,.7516311035,.2642864329
-.190870405e-1,.7666839776,.3083883530
-.310214676e-1,.7811697692,.3523263784
.660738970e-1,.5777460999,-.2590223463
.631538930e-1,.6006544780,-.2049574368
.591689470e-1,.6225678315,-.1528149937
.542214720e-1,.6435818516,-.1022745848
.483918770e-1,.6637716644,-.5307820404e-1
.417441610e-1,.6831970713,-.5013195310e-2
.343297430e-1,.7019061138,.4209942322e-1
.261901350e-1,.7199375777,.8841323504e-1
.173588570e-1,.7373227830,.1340624553
.78628300e-2,.7540868830,.1791664461
-.22766052e-2,.7702498169,.2238331945
-.130429378e-1,.7858270128,.2681620819
-.244239416e-1,.8008298927,.3122461294
.622064450e-1,.5885807137,-.3118822148
.604062730e-1,.6125354015,-.2556430092
.574174720e-1,.6353794979,-.2017067521
.533707830e-1,.6572351635,-.1496710795
.483670660e-1,.6781966322,-.9922002453e-1
.424855790e-1,.6983379619,-.5009878335e-1
.357894570e-1,.7177181410,-.2097063841e-2
.283294430e-1,.7363845804,.4496234812e-1
.201465090e-1,.7543755629,.9123169425e-1
.112737350e-1,.7717219960,.1368441588
.17376720e-2,.7884486887,.1819183145
-.84406532e-2,.8045752861,.2265615489
-.192450069e-1,.8201169573,.2708727913
.558469020e-1,.5981014399,-.3689333539
.553603140e-1,.6232834693,-.3099671358
.535180480e-1,.6471988257,-.2538122897
.504921070e-1,.6700082217,-.1999452336
.464120620e-1,.6918327208,-.1479670230
.413779400e-1,.7127657818,-.9756406717e-1
.354683860e-1,.7328808870,-.4848328198e-1
.287460680e-1,.7522365899,-.5156393246e-3
.212613680e-1,.7708799641,.4651513132e-1
.130549680e-1,.7888490213,.9276054992e-1
.41597110e-2,.8061744480,.1383532511
-.53980506e-2,.8228808666,.1834113811
-.155974603e-1,.8389877642,.2280420080
.465629920e-1,.6059776551,-.4312163295
.476623350e-1,.6326414926,-.3687378181
.471710350e-1,.6578191182,-.3097816969
.453246980e-1,.6817306722,-.2536349957
.422951660e-1,.7045367123,-.1997746229
.382118940e-1,.7263581961,-.1478019635
.331748300e-1,.7472885083,-.9740365405e-1
.272625590e-1,.7674010746,-.4832677933e-1
.205377060e-1,.7867544084,-.3624280578e-3
.130506160e-1,.8053955493,.4666557496e-1
.48419430e-2,.8233624835,.9290868274e-1
-.40554913e-2,.8406858752,.1384994740
-.136153543e-1,.8573903300,.1835560572
.337392270e-1,.6117213576,-.5002799026
.368296360e-1,.6402455378,-.4331064779
.379799630e-1,.6669570108,-.3705114767
.375314670e-1,.6921746312,-.3114635795
.357220830e-1,.7161207112,-.2552428528
.327251560e-1,.7389572158,-.2013217500
.286711710e-1,.7608060642,-.1492986597
.236608040e-1,.7817613196,-.9885813757e-1
.177731790e-1,.8018969146,-.4974575464e-1
.110713300e-1,.8212717420,-.1751496194e-2
.36059190e-2,.8399331388,.4530164379e-1
-.45821442e-2,.8579193284,.9156574959e-1
-.134598329e-1,.8752611704,.1371738861
.731448690e-1,.4617195488,.1206141910
.638431210e-1,.4786651723,.1658678416
.538921810e-1,.4950042261,.2106533007
.433099250e-1,.5107534131,.2550722424
.321098000e-1,.5259252971,.2992193576
.203012530e-1,.5405287040,.3431843562
.78900150e-2,.5545689896,.3870536998
-.51217250e-2,.5680481989,.4309121725
-.187352570e-1,.5809651261,.4748443694
-.329553900e-1,.5933152786,.5189361744
-.477905910e-1,.6050907454,.5632763028
-.632532420e-1,.6162799575,.6079579869
-.793600280e-1,.6268673239,.6530808895
.829167500e-1,.4783675018,.8643590557e-1
.741146220e-1,.4957799445,.1321111611
.646467090e-1,.5125703123,.1772363075
.545345740e-1,.5287587539,.2219197629
.437949230e-1,.5443608795,.2662612284
.324401570e-1,.5593882751,.3103539579
.204787610e-1,.5738488683,.3542866842
.79155580e-2,.5877471663,.3981453002
-.52481440e-2,.6010843899,.4420144033
-.190145200e-1,.6138585089,.4859787737
-.333892840e-1,.6260641828,.5301248616
-.483818640e-1,.6376926023,.5745423587
-.640056900e-1,.6487312202,.6193259286
.915809870e-1,.4946686037,.5099884720e-1
.833069580e-1,.5125744720,.9717592271e-1
.743468730e-1,.5298393266,.1427122229
.647265170e-1,.5464872604,.1877246943
.544662590e-1,.5625373046,.2323194883
.435817560e-1,.5780040877,.2765946080
.320844610e-1,.5928983126,.3206420892
.199819860e-1,.6072270890,.3645498547
.72783220e-2,.6209941476,.4084033611
-.60260384e-2,.6341999488,.4522871162
-.199340854e-1,.6468416969,.4962861556
-.344523864e-1,.6589132581,.5404875438
-.495912734e-1,.6704049768,.5849819699
.990700760e-1,.5105802945,.1418495791e-1
.913572570e-1,.5290105273,.6095655837e-1
.829337080e-1,.5467766917,.1069857956
.738301280e-1,.5639074734,.1524003866
.640710730e-1,.5804258139,.1973147112
.536758480e-1,.5963497522,.2418329695
.426591720e-1,.6116930405,.2860517151
.310316500e-1,.6264655880,.3300619548
.188001020e-1,.6406737662,.3739509505
.59677640e-2,.6543205985,.4178038291
-.74656165e-2,.6674058498,.4617050882
-.215037863e-1,.6799260191,.5057400701
-.361540975e-1,.6918742363,.5499964743
.1053057230,.5260530340,-.2414679830e-1
.981929960e-1,.5450439598,.2332768766e-1
.903395000e-1,.5633427514,.6994445732e-1
.817817660e-1,.5809835406,.1158448717
.725492160e-1,.5979938195,.1611537753
.626653240e-1,.6143955194,.2059833456
.521484610e-1,.6302058063,.2504361192
.410125160e-1,.6454376553,.2946074171
.292673360e-1,.6601002698,.3385873878
.169190340e-1,.6741993594,.3824627557
.39701640e-2,.6877373112,.4263184106
-.95801994e-2,.7007132597,.4702388984
-.237364920e-1,.7131230609,.5143098965
.1101963500,.5410284049,-.6416635375e-1
.1037298750,.5606231532,-.1586069077e-1
.964859500e-1,.5794914947,.3145434018e-1
.885081510e-1,.5976741441,.7793750936e-1
.798316780e-1,.6152039903,.1237269947
.704848520e-1,.6321074954,.1689452006
.604902090e-1,.6484057159,.2137024396
.498653050e-1,.6641150549,.2580998351
.386233030e-1,.6792478104,.3022316793
.267733850e-1,.6938125633,.3461874072
.143210390e-1,.7078144391,.3900533155
.12682126e-2,.7212552599,.4339141297
-.123866217e-1,.7341335966,.4778544847
.1136337590,.5554365243,-.1060806450
.1078690350,.5756869511,-.5678969502e-1
.1012817920,.5951688596,-.8645036247e-2
.939243010e-1,.6139310909,.3853455929e-1
.858387540e-1,.6320130670,.8490437885e-1
.770592280e-1,.6494466258,.1305999385
.676131050e-1,.6662573541,.1757416009
.575221240e-1,.6824655615,.2204381160
.468031440e-1,.6980870000,.2647894363
.354687000e-1,.7131333837,.3088889995
.235274030e-1,.7276127567,.3528256587
.109841960e-1,.7415297380,.3966853777
-.21594974e-2,.7548856564,.4405527722
.1154885660,.5691924384,-.1501449784
.1104933140,.5901618175,-.9968050443e-1
.1046196410,.6103104468,-.5054797875e-1
.979308090e-1,.6296974374,-.2536754524e-2
.904776630e-1,.6483702945,.4453064721e-1
.823012580e-1,.6663673761,.9080666839e-1
.734347370e-1,.6837196527,.1364246506
.639047080e-1,.7004519836,.1815032806
.537322460e-1,.7165840590,.2261500386
.429336250e-1,.7321310865,.2704639199
.315208600e-1,.7471042908,.3145376708
.195020780e-1,.7615112655,.3584596845
.68817630e-2,.7753562014,.4023156658
.1156037950,.5821909588,-.1966793883
.1114620960,.6039578515,-.1448069742
.1063717370,.6248383673,-.9449261161e-1
.1004102410,.6449049402,-.4548635001e-1
.936394220e-1,.6642153268,.2418527060e-2
.861089970e-1,.6828159773,.4939655043e-1
.778591130e-1,.7007444064,.9559792256e-1
.689221790e-1,.7180308921,.1411542629
.593241820e-1,.7346997162,.1861829460
.490856630e-1,.7507700724,.2307904475
.382224320e-1,.7662567313,.2750750118
.267460810e-1,.7811705247,.3191288477
.146643490e-1,.7955186823,.3630399927
.1137855830,.5942990226,-.2460929458
.1106040410,.6169630341,-.1925139197
.1063840540,.6386567770,-.1407750737
.1012222170,.6594705087,-.9057260282e-1
.951946480e-1,.6794753465,-.4166048338e-1
.883620900e-1,.6987280474,.6165107022e-2
.807734200e-1,.7172742780,.5307652053e-1
.724681180e-1,.7351509262,.9922230247e-1
.634780380e-1,.7523877557,.1447328046
.538287080e-1,.7690086171,.1897244282
.435402700e-1,.7850323318,.2343029064
.326281850e-1,.8004733440,.2785659331
.211037290e-1,.8153421903,.3226053229
.1097891960,.6053439524,-.2989213011
.1077064720,.6290346392,-.2432445181
.1044679160,.6516453787,-.1897702572
.1001965740,.6732911382,-.1381185517
.949878090e-1,.6940610230,-.8798910977e-1
.889168280e-1,.7140253000,-.3913844150e-1
.820436780e-1,.7332400739,.8635394760e-2
.744166920e-1,.7517505035,.5550334071e-1
.660749110e-1,.7695930684,.1016128684
.570498340e-1,.7867971978,.1470935080
.473666830e-1,.8033864594,.1920610269
.370453430e-1,.8193794316,.2366206786
.261010440e-1,.8347903453,.2808698019
.1032969240,.6150945249,-.3558875161
.1024992460,.6399858891,-.2975830705
.1003876570,.6636496048,-.2419632365
.971235250e-1,.6862364478,-.1885358340
.928291300e-1,.7078606702,-.1369231177
.875992910e-1,.7286108640,-.8682635977e-1
.815088060e-1,.7485569167,-.3800319877e-1
.746174120e-1,.7677546437,.9747471806e-2
.669731980e-1,.7862489773,.5659596721e-1
.586150130e-1,.8040762141,.1026892785
.495741910e-1,.8212656327,.1481565672
.398758210e-1,.8378406746,.1931133199
.295396720e-1,.8538198102,.2376645777
.938810060e-1,.6232285911,-.4180066890
.946290120e-1,.6495641576,-.3563251520
.938416620e-1,.6744651708,-.2979988911
.917390350e-1,.6981372615,-.2423613837
.884828460e-1,.7207315264,-.1889194365
.841956120e-1,.7423624381,-.1372946186
.789723190e-1,.7631187490,-.8718771451e-1
.728878930e-1,.7830704621,-.3835601765e-1
.660021670e-1,.8022734853,.9401843714e-2
.583633060e-1,.8207728204,.5625637714e-1
.500102180e-1,.8386048200,.1023547213
.409742890e-1,.8557988100,.1478261531
.312806490e-1,.8723782709,.1927862462
.1108768590,.4596022548,.1673601609
.1009047200,.4759215007,.2121318776
.903017780e-1,.4916513604,.2565403177
.790813440e-1,.5068042680,.3006799769
.672527350e-1,.5213889306,.3446404300
.548215640e-1,.5354105923,.3885080589
.417899050e-1,.5488711897,.4323676171
.281563500e-1,.5617694092,.4763037195
.139159740e-1,.5741006474,.5204023179
-.9398170e-3,.5858568767,.5647522508
-.164235380e-1,.5970264004,.6094469277
-.325520290e-1,.6075934877,.6545862672
-.493470020e-1,.6175378501,.7002789707
.1216194660,.4767085113,.1341786693
.1121217650,.4934710470,.1792814044
.1019807040,.5096324626,.2239471645
.912127830e-1,.5252081739,.2682753074
.798302170e-1,.5402095939,.3123588429
.678413170e-1,.5546444898,.3562863396
.552507470e-1,.5685172170,.4001435974
.420596540e-1,.5818288482,.4440151913
.282657050e-1,.5945772044,.4879859444
.138630210e-1,.6067567907,.5321424192
-.11580030e-2,.6183586347,.5765744945
-.168109850e-1,.6293700107,.6213771078
-.331139960e-1,.6397740365,.6666522670
.1313089520,.4935067335,.9984757496e-1
.1223097140,.5107350059,.1453502372
.1126515340,.5273475995,.1903355303
.1023544890,.5433632717,.2349090605
.914339780e-1,.5587964107,.2791684270
.799012220e-1,.5736575023,.3232053787
.677636150e-1,.5879534542,.3671076506
.550249440e-1,.6016878041,.4109606018
.416854990e-1,.6148608237,.4548487326
.277420830e-1,.6274695253,.4988571533
.131879170e-1,.6395075756,.5430730941
-.19875600e-2,.6509651067,.5875875117
-.177990190e-1,.6618284105,.6324968865
.1398862060,.5099603337,.6426777399e-1
.1314131380,.5276802300,.1102490440
.1222619860,.5447665620,.1556242404
.1124569010,.5612418962,.2005069203
.1020168440,.5771239459,.2450006562
.909562260e-1,.5924261766,.2892015419
.792853720e-1,.6071582366,.3332002607
.670108400e-1,.6213262522,.3770838684
.541356140e-1,.6349330131,.4209373991
.406591950e-1,.6479780519,.4648453613
.265775840e-1,.6604576311,.5088932137
.118831620e-1,.6723646344,.5531688881
-.34355324e-2,.6836883507,.5977644279
.1472831920,.5260272437,.2732176302e-1
.1393685180,.5442688735,.7387239972e-1
.1307523640,.5618550794,.1197178772
.1214636080,.5788128426,.1649818246
.1115252610,.5951636619,.2097754928
.1009552900,.6109243271,.2542007164
.897672250e-1,.6261074792,.2983523038
.779705880e-1,.6407220147,.3423200455
.655711820e-1,.6547733555,.3861904508
.525712650e-1,.6682636115,.4300483231
.389696150e-1,.6811916403,.4739782461
.247614930e-1,.6935530157,.5180660654
.99385070e-2,.7053398950,.5624004230
.1534210400,.5416585161,-.1113069663e-1
.1461026000,.5604572340,.3609519613e-1
.1380541190,.5785738425,.8250375065e-1
.1293100570,.5960405375,.1282313869
.1198981180,.6128832045,.1733991607
.1098403130,.6291224097,.2181163560
.991537400e-1,.6447741283,.2624833225
.878511500e-1,.6598502742,.3065937873
.759413500e-1,.6743590765,.3505368001
.634294710e-1,.6883053279,.3943984348
.503171160e-1,.7016905276,.4382633414
.366024100e-1,.7145129242,.4822162277
.222799460e-1,.7267674646,.5263433409
.1582075640,.5567964509,-.5125841554e-1
.1515302680,.5761942187,-.3232134184e-2
.1440879900,.5948772300,.4384792778e-1
.1359219110,.6128839618,.9013452929e-1
.1270652830,.6302454809,.1357612527
.1175448000,.6469867305,.1808469773
.1073816100,.6631274699,.2254993237
.965920560e-1,.6786829686,.2698173947
.851882110e-1,.6936645068,.3138940137
.731782560e-1,.7080797293,.3578176253
.605667280e-1,.7219328753,.4016739619
.473546550e-1,.7352249042,.4455475821
.335395820e-1,.7479535226,.4895233440
.1615339220,.5713720598,-.9326674318e-1
.1555517370,.5914193011,-.4429004125e-1
.1487615920,.6107116305,.3589943670e-2
.1412129390,.6292952505,.5054705254e-1
.1329457160,.6472074772,.9673096292e-1
.1239921560,.6644784297,.1422729019
.1143781040,.6811322530,.1872899330
.1041239750,.6971880236,.2318882981
.932454690e-1,.7126604111,.2761660710
.817540810e-1,.7275601538,.3202153336
.696574550e-1,.7418943958,.3641240419
.569596180e-1,.7556668995,.4079776684
.436610980e-1,.7688781569,.4518607232
.1632700830,.5853015308,-.1374087207
.1580488020,.6060597194,-.8729870180e-1
.1519662370,.6260131726,-.3846437888e-1
.1450822520,.6452178231,.9295693560e-2
.1374450350,.6637186939,.5615208151e-1
.1290935130,.6815521565,.1022519729
.1200590870,.6987475508,.1477246786
.1103668990,.7153283690,.1926857988
.1000367660,.7313131256,.2372404611
.890838560e-1,.7467159933,.2814859066
.775191830e-1,.7615472632,.3255136293
.653499460e-1,.7758136617,.3694112012
.525797470e-1,.7895185534,.4132638988
.1632584660,.5984811802,-.1840010841
.1588796770,.6200265481,-.1325304702
.1535726250,.6407045985,-.8255286195e-1
.1474106360,.6605838419,-.3382998706e-1
.1404523210,.6797190414,.1383623319e-1
.1327448860,.6981543044,.6061383501e-1
.1243264670,.7159252630,.1066480709
.1152278160,.7330606492,.1520667701
.1054735270,.7495834434,.1969843983
.950829440e-1,.7655117184,.2415052207
.840708160e-1,.7808592567,.2857258404
.724477790e-1,.7956359940,.3297372973
.602206780e-1,.8098483273,.3736268749
.1613047640,.6107800043,-.2334479782
.1578717420,.6332090440,-.1803278739
.1534249190,.6546908452,-.1289710613
.1480555580,.6753106786,-.7908891470e-1
.1418358170,.6951359608,-.3044640352e-1
.1348234090,.7142206199,.1715215347e-1
.1270648370,.7326081027,.6387297573e-1
.1185976680,.7503335111,.1098599348
.1094521840,.7674251398,.1552398010
.996525850e-1,.7839055986,.2001262259
.892178720e-1,.7997926421,.2446228626
.781624930e-1,.8150997680,.2888258546
.664968060e-1,.8298366560,.3328259243
.1571641790,.6220282636,-.2862774604
.1548109620,.6454662146,-.2311305420
.1513322970,.6678526114,-.1780928351
.1468442180,.6892958656,-.1268047034
.1414370480,.7098803697,-.7698018843e-1
.1351822380,.7296728867,-.2838619433e-1
.1281369670,.7487268396,.1917151435e-1
.1203473110,.7670852794,.6585807068e-1
.1118504950,.7847829872,.1118165146
.1026765190,.8018479945,.1571729818
.928493440e-1,.8183026880,.2020406371
.823877640e-1,.8341646275,.2465227605
.713060420e-1,.8494471407,.2907152266
.1505198030,.6319991685,-.3432003393
.1494259010,.6566137557,-.2855170814
.1470565740,.6800366560,-.2304014471
.1435635780,.7024096619,-.1773895586
.1390625400,.7238408071,-.1261229510
.1336434880,.7444142100,-.7631649735e-1
.1273776560,.7641964276,-.2773771078e-1
.1203220510,.7832407251,.1980719391e-1
.1125226190,.8015900311,.6648301322e-1
.1040164770,.8192790256,.1124325252
.948335360e-1,.8363356569,.1577816661
.849976830e-1,.8527822417,.2026434477
.745276460e-1,.8686362798,.2471210371
.1476285920,.4568622822,.2132488142
.1370100300,.4725775471,.2576493875
.1257742570,.4877161226,.3017834782
.1139304940,.5022866260,.3457405600
.1014842640,.5162942168,.3896069541
.884375520e-1,.5297407505,.4334673950
.747888650e-1,.5426248311,.4774065105
.605331870e-1,.5549417721,.5215103070
.456618300e-1,.5666834568,.5658677145
.301621750e-1,.5778380934,.6105722840
.140172690e-1,.5883898426,.6557241195
-.27947320e-2,.5983182949,.7014321821
-.203013370e-1,.6075977469,.7478171012
.1592966810,.4743917143,.1809531794
.1491319910,.4905310515,.2256046197
.1383409690,.5060851794,.2699220118
.1269356800,.5210653691,.3139981658
.1149242970,.5354792568,.3579215171
.1023113480,.5493310744,.4017777953
.890978510e-1,.5626217731,.4456515565
.752813440e-1,.5753490522,.4896276623
.608558120e-1,.5875072910,.5337927703
.458115070e-1,.5990873826,.5782369148
.301346540e-1,.6100764544,.6230552573
.138070050e-1,.6204574595,.6683501141
-.31947660e-2,.6302086002,.7142333714
.1699591710,.4916465217,.1476008388
.1602687560,.5082289960,.1925632123
.1499403480,.5242153647,.2371188525
.1389891280,.5396198111,.2813650184
.1274261190,.5544526362,.3253932163
.1152585320,.5687205764,.3692910279
.1024899780,.5824270049,.4131437331
.891205730e-1,.5955720316,.4570358269
.751469460e-1,.6081525055,.5010524905
.605621350e-1,.6201619228,.5452811007
.453553820e-1,.6315902318,.5898128419
.295118020e-1,.6424235240,.6347445242
.130118990e-1,.6526435831,.6801806887
.1795638860,.5085948609,.1131079194
.1703711200,.5256423110,.1584490478
.1605257550,.5420800080,.2033044116
.1500464470,.5579253842,.2477770491
.1389473410,.5731916540,.2919626552
.1272385170,.5878882374,.3359516361
.1149263060,.6020210482,.3798308764
.1020134720,.6155926699,.4236853331
.884992980e-1,.6286024322,.4675995315
.743795620e-1,.6410463902,.5116590394
.596464140e-1,.6529172093,.5559519952
.442881390e-1,.6642039442,.6005707614
.282887940e-1,.6748916980,.6456137989
.1880511480,.5252005334,.7737554754e-1
.1793830050,.5427381631,.1231727213
.1700442010,.5596491634,.1683972031
.1600573370,.5759546515,.2131594336
.1494400250,.5916710843,.2575606350
.1382054790,.6068108065,.3016951687
.1263629290,.6213824430,.3456525185
.1139179040,.6353911600,.3895190097
.1008723970,.6488388191,.4333793779
.872249210e-1,.6617240315,.4773182505
.729704680e-1,.6740421168,.5214216288
.581003570e-1,.6857849658,.5657784359
.426019770e-1,.6969407941,.6104822112
.1953523010,.5414219255,.4028659596e-1
.1872401690,.5594790618,.8662880096e-1
.1784351970,.5768888458,.1323015071
.1689645400,.5936766501,.1774245814
.1588497410,.6098626031,.2221064000
.1481074870,.6254622964,.2664466310
.1367501620,.6404873006,.3105385071
.1247862340,.6549455280,.3544707438
.1122205120,.6688414721,.3983292275
.990542880e-1,.6821763404,.4421985527
.852853760e-1,.6949480887,.4861635028
.709080430e-1,.7071513621,.5303105390
.559128450e-1,.7187773366,.5747293698
.2013877900,.5572106230,.1701379270e-2
.1938685300,.5758217076,.4869224856e-1
.1856292690,.5937600602,.9490434355e-1
.1767025160,.6110560592,.1404695334
.1671143500,.6277340696,.1855053801
.1568853890,.6438133554,.2301185005
.1460315090,.6593087514,.2744072494
.1345643640,.6742311456,.3184639105
.1224917470,.6885878201,.3623765717
.1098178260,.7023826694,.4062307745
.965432670e-1,.7156163150,.4501110390
.826652520e-1,.7282861234,.4941023400
.681773960e-1,.7403861298,.5382916046
.2060646660,.5725095698,-.3854809721e-1
.1991820270,.5917154770,.9213682071e-2
.1915460810,.6102175352,.5607150503e-1
.1831957690,.6280521282,.1021725922
.1741625030,.6452486074,.1476462823
.1644714380,.6618304742,.1926081962
.1541423970,.6778162511,.2371634771
.1431905560,.6932201183,.2814093789
.1316269370,.7080523726,.3254374023
.1194587450,.7223197470,.3693351257
.1066895870,.7360256116,.4131878280
.933195770e-1,.7491700730,.4570800044
.793453390e-1,.7617499766,.5010968369
.2092732550,.5872505707,-.8066599923e-1
.2030797850,.6071003994,-.3198700198e-1
.1960919880,.6262080533,.1564227410e-1
.1883566860,.6446172785,.6238887113e-1
.1799117040,.6623634180,.1083972874
.1707875380,.6794749643,.1537947722
.1610085670,.6959746964,.1986953472
.1505939460,.7118805126,.2432029414
.1395582620,.7272060407,.2874139075
.1279119980,.7419610764,.3314191106
.1156618600,.7561518855,.3753057233
.1028109770,.7697813902,.4191588311
.893589880e-1,.7828492547,.4630629354
.2108826190,.6013508134,-.1249036467
.2054423380,.6219043808,-.7512940911e-1
.1991568050,.6416681923,-.2657774697e-1
.1920827310,.6606952329,.2094432346e-1
.1842658220,.6790282087,.6760099057e-1
.1757430040,.6967016233,.1135345752
.1665440330,.7137432760,.1588706564
.1566926590,.7301753590,.2037219756
.1462074960,.7460152637,.2481914942
.1351026460,.7612761675,.2923748501
.1233881560,.7759674560,.3363624063
.1110703200,.7900950110,.3802410228
.981518700e-1,.8036613860,.4240956464
.2107342270,.6147079180,-.1715752302
.2061264460,.6360393284,-.1204849623
.2006094510,.6565212190,-.7082653702e-1
.1942526890,.6762184776,-.2237239317e-1
.1871117960,.6951830859,.2506759059e-1
.1792316290,.7134569585,.7165544173e-1
.1706484310,.7310739558,.1175318235
.1613913860,.7480613482,.1628210523
.1514837670,.7644408782,.2076348995
.1409437670,.7802295469,.2520755927
.1297851180,.7954401837,.2962382284
.1180175270,.8100818581,.3402127975
.1056469710,.8241601544,.3840859294
.2086328360,.6271926431,-.2210810528
.2049578080,.6493955670,-.1683947058
.2002919350,.6706727001,-.1173996966
.1947215790,.6911047326,-.6782127089e-1
.1883152310,.7107556605,-.1943449494e-1
.1811277880,.7296767758,.2794879196e-1
.1732035250,.7479094464,.7448913033e-1
.1645782110,.7654870930,.1203260559
.1552806390,.7824366183,.1655830116
.1453337460,.7987794542,.2103711062
.1347554400,.8145323307,.2547920631
.1235591910,.8297078371,.2989406128
.1117544730,.8443148213,.3429064893
.2043328820,.6386377374,-.2739431880
.2017204860,.6618335274,-.2192958804
.1980108370,.6840041041,-.1666709424
.1933135660,.7052519006,-.1157272115
.1877143530,.7256569706,-.6619185619e-1
.1812811750,.7452828307,-.1784135132e-1
.1740685340,.7641804022,.2951141148e-1
.1661203920,.7823907610,.7602618014e-1
.1574722620,.7999470897,.1218418820
.1481527270,.8168760943,.1670814955
.1381845450,.8331990386,.2118557710
.1275854660,.8489325067,.2562661644
.1163688240,.8640889575,.3004072081
.1834391000,.4535319115,.2584047434
.1721928820,.4686607275,.3025350726
.1603387980,.4832215882,.3464898889
.1478823110,.4972195954,.3903554732
.1348253460,.5106565487,.4342165451
.1211663500,.5235309971,.4781577443
.1069002450,.5358381963,.5222651130
.920182810e-1,.5475699698,.5666276460
.765077660e-1,.5587144600,.6113389891
.603516710e-1,.5692557546,.6564993771
.435280610e-1,.5791733601,.7022179436
.260093230e-1,.5884414754,.7486155463
.77611060e-2,.5970280054,.7958283552
.1959937830,.4714546388,.2268984477
.1851847360,.4869919249,.2712075337
.1737617140,.5019555452,.3152780095
.1617327790,.5163530339,.3591982074
.1491023570,.5301885259,.4030538016
.1358713650,.5434628784,.4469293376
.1220372390,.5561736950,.4909097065
.1075938580,.5683152566,.5350816414
.925313620e-1,.5798783514,.5795353009
.768358520e-1,.5908499917,.6243660244
.604889440e-1,.6012130011,.6696763681
.434671490e-1,.6109454337,.7155785418
.257410270e-1,.6200197811,.7621974287
.2075845890,.4891317856,.1944152610
.1972301240,.5050938083,.2389562047
.1862533840,.5204744099,.2831915637
.1746652270,.5352837378,.3272126465
.1624727120,.5495283863,.3711069084
.1496793030,.5632115922,.4149595681
.1362849740,.5763333308,.4588551193
.1222862060,.5888903146,.5028788032
.1076758860,.6008758981,.5471181220
.924430930e-1,.6122798765,.5916644549
.765727610e-1,.6230881727,.6366148865
.600451900e-1,.6332823809,.6820743330
.428353710e-1,.6428391338,.7281581153
.2181651480,.5065353239,.1608837562
.2082851000,.5229406160,.2057158863
.1977719860,.5387544046,.2501706275
.1866397170,.5539896896,.2943433402
.1748981670,.5686556952,.3383241961
.1625534690,.5827581517,.3821999372
.1496081980,.5962994659,.4260554586
.1360614490,.6092787917,.4699753042
.1219088080,.6216920054,.5140451417
.1071422230,.6335315835,.5583532929
.917497630e-1,.6447863771,.6029923992
.757152420e-1,.6554412636,.6480613106
.590176880e-1,.6654766497,.6936673101
.2276827120,.5236337272,.1262200645
.2182998300,.5405035441,.1714102325
.2082702170,.5567690906,.2161451925
.1976111750,.5724465322,.2605256374
.1863356370,.5875479540,.3046455435
.1744525790,.6020817421,.3485941311
.1619672890,.6160528378,.3924575724
.1488815260,.6294628840,.4363205486
.1351935700,.6423102738,.4802677331
.1208981720,.6545901024,.5243852733
.1059863980,.6662940232,.5687623464
.904453590e-1,.6774099938,.6134928672
.742578060e-1,.6879218960,.6586774419
.2360769690,.5403911587,.9032540082e-1
.2272175310,.5577500529,.1359496397
.2176943380,.5744887695,.1810333474
.2075285150,.5906270485,.2256841050
.1967363860,.6061801415,.2700009842
.1853300070,.6211593131,.3140767872
.1733175460,.6355721935,.3579999430
.1607035230,.6494230081,.4018561769
.1474889520,.6627127029,.4457300453
.1336713630,.6754389709,.4897064110
.1192447350,.6875961853,.5338719356
.1041993130,.6991752330,.5783166620
.885213130e-1,.7101632347,.6231357633
.2432785540,.5567664173,.5308282309e-1
.2349731560,.5746429766,.9922851006e-1
.2259829860,.5918797215,.1447389348
.2163335670,.6085005005,.1897304946
.2060450440,.6245241354,.2343089241
.1951328750,.6399650696,.2785719145
.1836083370,.6548338389,.3226112801
.1714788720,.6691373979,.3665147995
.1587483150,.6828793294,.4103678541
.1454170030,.6960599482,.4542549446
.1314817870,.7086763114,.4982611647
.1169359380,.7207221323,.5424737055
.1017689460,.7321875917,.5869834600
.2492071090,.5727115728,.1435297493e-1
.2414916980,.5911393820,.6112168503e-1
.2330656760,.6089032368,.1071485161
.2239597230,.6260318003,.1525611298
.2141983710,.6425479950,.1974738645
.2038009100,.6584698438,.2419908887
.1927820420,.6738110844,.2862087330
.1811523600,.6885816133,.3302183880
.1689186690,.7027877892,.3741071047
.1560841940,.7164326243,.4179600052
.1426486680,.7295158716,.4618615880
.1286083340,.7420340186,.5058972003
.1139558260,.7539801830,.5501545543
.2537687810,.5881701423,-.2603162339e-1
.2466860170,.6071890632,.2147972455e-1
.2388608830,.6255143551,.6812740073e-1
.2303302190,.6431804368,.1140535078
.2211237020,.6602150390,.1593834600
.2112650220,.6766402954,.2042298728
.2007727370,.6924735464,.2486956102
.1896609020,.7077279234,.2928762375
.1779395190,.7224127715,.3368620708
.1656148410,.7365339338,.3807399390
.1526895600,.7500939262,.4245947750
.1391628880,.7630920108,.4685111108
.1250305290,.7755241740,.5125745519
.2568528650,.6030746271,-.6827434328e-1
.2504539850,.6227325310,-.1987745190e-1
.2432735540,.6416601971,.2751434831e-1
.2353559340,.6598990751,.7406182033e-1
.2267369670,.6774826515,.1199046683
.2174455030,.6944378842,.1651664661
.2075045310,.7107862515,.2099584208
.1969319990,.7265445243,.2543823318
.1857414220,.7417253280,.2985329842
.1739423020,.7563375442,.3425001513
.1615404310,.7703865812,.3863703323
.1485380510,.7838745354,.4302283269
.1349339240,.7968002509,.4741587210
.2583272640,.6173430807,-.1126253113
.2526746580,.6376982634,-.6316928986e-1
.2461918130,.6572777165,-.1488560178e-1
.2389325050,.6761316847,.3241094261e-1
.2309401190,.6943007047,.7887863222e-1
.2222497010,.7118175216,.1246552796
.2128894450,.7287084787,.1698630102
.2028817780,.7449945297,.2146119192
.1922441610,.7606919902,.2590029718
.1809896710,.7758130783,.3031303409
.1691274140,.7903663022,.3470833799
.1566628040,.8043567189,.3909483400
.1435977170,.8177860839,.4348099293
.2580321440,.6308742395,-.1593968935
.2532030450,.6519988614,-.1086668495
.2474825400,.6722906031,-.5931104302e-1
.2409364880,.6918109989,-.1111175797e-1
.2336177500,.7106094393,.3611378260e-1
.2255689860,.7287257832,.8252203928e-1
.2168246540,.7461922255,.1282494299
.2074124540,.7630346492,.1734170041
.1973543960,.7792736183,.2181340410
.1866675760,.7949251063,.2625008879
.1753647440,.8100010251,.3066112678
.1634547040,.8245096032,.3505542313
.1509425860,.8384556318,.3944158505
.2557708490,.6435403441,-.2089865875
.2518627700,.6655255182,-.1567104750
.2469852520,.6866049014,-.1060582539
.2412201460,.7068549708,-.5676786344e-1
.2346325470,.7263365463,-.8623676173e-2
.2272747200,.7450984644,.3855552299e-1
.2191888550,.7631801428,.8492501058e-1
.2104090240,.7806134172,.1306202963
.2009626080,.7974238710,.1757617349
.1908713420,.8136318122,.2204580738
.1801520830,.8292529905,.2648092607
.1688173660,.8442991182,.3089087307
.1568757980,.8587782382,.3528453363
.2183410300,.4496378843,.3029394139
.2064813960,.4641935575,.3468930210
.1940193900,.4781864089,.3907581800
.1809569080,.4916182078,.4346196014
.1672923650,.5044874733,.4785619319
.1530206500,.5167894305,.5226712335
.1381329780,.5285158703,.5670365353
.1226166180,.5396548996,.6117515339
.1064545000,.5501905673,.6569165368
.896246420e-1,.5601023341,.7026407687
.720993720e-1,.5693643464,.7490452133
.538442710e-1,.5779444458,.7962661985
.348167270e-1,.5858028153,.8444600669
.2317487580,.4679283630,.2721374364
.2203129100,.4828799996,.3162038497
.2082712790,.4972656263,.3601218116
.1956282170,.5110893080,.4039769557
.1823845670,.5243518332,.4478538199
.1685376910,.5370507369,.4918373189
.1540813920,.5491802284,.5360142406
.1390057280,.5607310196,.5804748338
.1232967100,.5716900399,.6253145687
.1069358560,.5820400185,.6706361755
.898995600e-1,.5917589022,.7165521008
.721582450e-1,.6008190544,.7631875306
.536751960e-1,.6091861700,.8106842716
.2442294490,.4859987365,.2404277376
.2332322770,.5013602481,.2846545509
.2216239830,.5161507608,.3286700426
.2094115020,.5303767541,.3725615661
.1965981820,.5440413561,.4164142931
.1831838810,.5571444345,.4603127195
.1691649640,.5696825925,.5043421361
.1545341960,.5816490696,.5485901455
.1392805230,.5930335396,.5931482886
.1233887360,.6038217889,.6381138702
.1068389690,.6139952588,.6835921095
.896060240e-1,.6235304043,.7296987234
.716584330e-1,.6323978229,.7765631729
.2557416630,.5038240720,.2077492014
.2452000620,.5196112444,.2521890620
.2340398420,.5348204136,.2963511029
.2222707000,.5494606386,.3403253020
.2098986040,.5635374956,.3841982832
.1969259690,.5770532425,.4280548946
.1833517320,.5900068848,.4719796982
.1691713160,.6023941471,.5160584485
.1543765000,.6142073470,.5603796272
.1389551660,.6254351627,.6050361150
.1228909240,.6360622804,.6501270960
.1061625700,.6460688876,.6957602957
.887433430e-1,.6554299815,.7420547296
.2662384670,.5213766089,.1740302425
.2561717210,.5376074601,.2187418402
.2454764160,.5532510193,.2631045676
.2341652430,.5683191462,.3072120719
.2222469580,.5828200201,.3511533502
.2097266400,.5967583869,.3950144462
.1966058440,.6101356999,.4388800005
.1828826460,.6229501620,.4828347316
.1685515880,.6351966725,.5269649194
.1536035160,.6468666774,.5713599684
.1380252970,.6579479090,.6161141280
.1217994110,.6684239960,.6613284616
.1049033630,.6782739192,.7071132022
.2756664900,.5386251195,.1391868846
.2660967490,.5553203445,.1842362104
.2558856960,.5714163632,.2288599167
.2450493350,.5869281281,.2731565582
.2335994340,.6018666338,.3172185643
.2215438900,.6162392611,.3611341188
.2088869740,.6300499981,.4049888128
.1956294480,.6432995583,.4488671756
.1817685940,.6559854015,.4928541493
.1672981300,.6681016586,.5370365828
.1522080260,.6796389575,.5815048241
.1364841940,.6905841365,.6263544877
.1201080420,.7009198215,.6716884985
.2839647150,.5555341001,.1031202817
.2749175920,.5727176306,.1485822408
.2652131300,.5892869807,.1935346988
.2548710520,.6052605768,.2380826096
.2439064440,.6206525144,.2823230878
.2323302440,.6354730139,.3263475356
.2201495820,.6497287367,.3702434666
.2073679910,.6634229849,.4140961297
.1939855140,.6765557977,.4579900189
.1799987020,.6891239525,.5020103461
.1654005140,.7011208710,.5462445529
.1501801060,.7125364217,.5907839274
.1343224990,.7233566075,.6357254214
.2910629740,.5720627274,.6571349962e-1
.2825683160,.5897624516,.1116740133
.2733964140,.6068293967,.1570321777
.2635712480,.6232859660,.2019011935
.2531116240,.6391497336,.2463843685
.2420318210,.6544340392,.2905775958
.2303420420,.6691484172,.3345714196
.2180487310,.6832988877,.3784528091
.2051547640,.6968881378,.4223067599
.1916595330,.7099155989,.4662177876
.1775589260,.7223774304,.5102714056
.1628452120,.7342664074,.5545556473
.1475068010,.7455717019,.5991627135
.2968799970,.5881635039,.2682728001e-1
.2889728880,.6064122026,.7338605576e-1
.2803639600,.6240051598,.1192382900
.2710821590,.6409694203,.1645077631
.2611505510,.6573265368,.2093058398
.2505871540,.6730933444,.2537344389
.2394055420,.6882825258,.2978884327
.2276152780,.7029030153,.3418576551
.2152222020,.7169602708,.3857286421
.2022286100,.7304564360,.4295862060
.1886333150,.7433904033,.4735149270
.1744316170,.7557577810,.5176006277
.1596151640,.7675507639,.5619319135
.3013208710,.6037804563,-.1370562539e-1
.2940429630,.6226170450,.3356862436e-1
.2860329350,.6407695822,.8001764981e-1
.2773256500,.6582706397,.1257788231
.2679491470,.6751464159,.1709739306
.2579257220,.6914177431,.2157128121
.2472727200,.7071008294,.2600962380
.2360031170,.7222077967,.3042182382
.2241259250,.7367470656,.3481680711
.2116464670,.7507236102,.3920319308
.1985665350,.7641391049,.4358945053
.1848844440,.7769919743,.4798404618
.1705949790,.7892773467,.5239559260
.3042736720,.6188466898,-.5608817994e-1
.2976749840,.6383179046,-.7958646078e-2
.2903067220,.6570700724,.3920823019e-1
.2822109500,.6751424941,.8556741167e-1
.2734216370,.6925669088,.1312541655
.2639660790,.7093688211,.1763886639
.2538659390,.7255684706,.2210795131
.2431380090,.7411815477,.2654265545
.2317947680,.7562197109,.3095231475
.2198447700,.7706909543,.3534580929
.2072929070,.7845998481,.3973173229
.1941405530,.7979476746,.4411854456
.1803855990,.8107324653,.4851472242
.3056048800,.6332810010,-.1005698190
.2997463050,.6534437381,-.5141545528e-1
.2930715590,.6728438900,-.3385838520e-2
.2856316840,.6915291459,.4369702399e-1
.2774678890,.7095380107,.8998596641e-1
.2686134480,.7269015732,.1356146252
.2590950750,.7436447946,.1807019214
.2489339350,.7597874495,.2253555064
.2381463850,.7753448206,.2696745059
.2267445110,.7903282008,.3137517614
.2147365070,.8047452460,.3576757281
.2021269210,.8186002066,.4015321462
.1889167920,.8318940522,.4454055745
.3051530150,.6469830600,-.1474617916
.3001098880,.6679077075,-.9707305457e-1
.2941920200,.6880150441,-.4800422907e-1
.2874619420,.7073634959,-.4665755004e-4
.2799699270,.7260000350,.4697564710e-1
.2717565720,.7439625940,.9321399574e-1
.2628546500,.7612817932,.1388008573
