-.1954786231,.5335011431,.2251537943
-.2100971803,.5542557504,.2845869928
-.2256882030,.5738283092,.3431704614
-.2422158436,.5922623921,.4011336033
-.2596554817,.6095879269,.4586855791
-.1224513353,.3234240985,-.3971358526
-.1226956713,.3616508246,-.3076221449
-.1258876924,.3962945874,-.2261612090
-.1313712857,.4281529030,-.1504718252
-.1387335295,.4577276877,-.7911454308e-1
-.1476957861,.4853576286,-.1110725336e-1
-.1580608967,.5112823750,.5426022761e-1
-.1696847482,.5356771002,.1175257106
-.1824597524,.5586725788,.1791125593
-.1963046939,.5803675301,.2393656210
-.2111582269,.6008365200,.2985747409
-.2269745947,.6201351678,.3569909320
-.2437207745,.6383036132,.4148380248
-.1243307577,.3321593012,-.4772347549
-.1214197883,.3742213569,-.3784993216
-.1223220685,.4116483383,-.2908358624
-.1260130309,.4456856289,-.2106720482
-.1318986004,.4770553371,-.1359424815
-.1395987769,.5062193588,-.6532054326e-1
-.1488543226,.5334928016,.2110606583e-2
-.1594804216,.5591003109,.6702059493e-1
-.1713413003,.5832069255,.1299207044
-.1843352913,.6059362226,.1912162786
-.1983855709,.6273815807,.2512396133
-.2134341883,.6476134427,.3102717052
-.2294381156,.6666841089,.3685573269
-.1322868900,.3353046212,-.5740833574
-.1246382285,.3831254260,-.4606597392
-.1224285660,.4243350310,-.3640191743
-.1238248834,.4611615030,-.2777262091
-.1278952798,.4947375844,-.1985344226
-.1340892043,.5257324817,-.1245294453
-.1420502593,.5545794001,-.5446530507e-1
-.1515333314,.5815762791,.1252749448e-1
-.1623626990,.6069367142,.7708886223e-1
-.1744087885,.6308182012,.1397104711
-.1875743733,.6533389223,.2007842900
-.2017859484,.6745882237,.2606332679
-.2169881447,.6946334082,.3195317965
-.1504430976,.3279992184,-.7018045863
-.1341744694,.3862977443,-.5600053673
-.1272920952,.4331871108,-.4490126628
-.1255591135,.4738173008,-.3537821283
-.1272961126,.5102296679,-.2684243868
-.1316305368,.5434848190,-.1899013641
-.1380403730,.5742172712,-.1163975304
-.1461849423,.6028411249,-.4672049027e-1
-.1558286433,.6296427576,.1996746570e-1
-.1668019298,.6548282548,.8428612964e-1
-.1789794719,.6785499586,.1467138512
-.1922670983,.7009223359,.2076334578
-.2065936008,.7220319410,.2673615000
-.2016860225,.2826111351,-.9425879968
-.1542917367,.3787434457,-.6910349165
-.1388900558,.4359881761,-.5521583190
-.1324221429,.4823737596,-.4424724239
-.1309512605,.5226853619,-.3480121915
-.1328772591,.5588679980,-.2631696959
-.1373589889,.5919440967,-.1850170019
-.1438897624,.6225295474,-.1117915866
-.1521374249,.6510280901,-.4233006236e-1
-.1618715692,.6777197856,.2418794930e-1
-.1729260426,.7028066004,.8837123620e-1
-.1851778544,.7264380283,.1506908121
-.1985345261,.7487264800,.2115244733
-.2191816815+.8798694986e-1*I,.2806135905+.1069496805*I,-1.047197551+.3187589091*I
-.2082567265,.3324167874,-.9370835684
-.1619186009,.4272653115,-.6893471602
-.1466500320,.4843482449,-.5509181767
-.1402468173,.5306551861,-.4414357547
-.1388171204,.5709167280,-.3470962316
-.1407729260,.6070631331,-.2623347584
-.1452779409,.6401109273,-.1842404209
-.1518278625,.6706731024,-.1110589372
-.1600918676,.6991517796,-.4163144941e-1
-.1698403640,.7258260335,.2485971675e-1
-.1809077292,.7508971761,.8902160412e-1
-.1931713429,.7745142598,.1513240910
-.2099856100+.1316571097*I,.3137322002+.1600315255*I,-1.047197551+.4678321806*I
-.2288863504+.9052137999e-1*I,.3292817417+.1100303248*I,-1.047197551+.3276295500*I
-.2262980996,.3709515248,-.9679392650
-.1737679841,.4733265207,-.6977705560
-.1578276889,.5312259513,-.5570796624
-.1511008780,.5779262270,-.4465781321
-.1494659196,.6184372669,-.3516361087
-.1512734641,.6547638859,-.2664709879
-.1556628020,.6879522894,-.1880862530
-.1621176820,.7186299888,-.1146863137
-.1703006239,.7472072001,-.4508965622e-1
-.1799779719,.7739679344,.2153493411e-1
-.1909814487,.7991167347,.8580312582e-1
-.2026828690+.1677974231*I,.3476179343+.2039607102*I,-1.047197551+.5844050364*I
-.2215836102+.1359202221*I,.3631674765+.1652134134*I,-1.047197551+.4819207071*I
-.2404843485+.9631311556e-1*I,.3787170164+.1170702809*I,-1.047197551+.3478069761*I
-.2593850879+.2370024579e-1*I,.3942665570+.2880806436e-1*I,-1.047197551+.8721202089e-1*I
-.1907116505,.5162640443,-.7186553055
-.1730229724,.5762886622,-.5720430418
-.1654872278,.6239722119,-.4589788070
-.1633471629,.6650972205,-.3625448269
-.1647929755,.7018635288,-.2763882451
-.1689016104,.7353931299,-.1972937079
-.1751267365,.7663500995,-.1233614747
-.1831142689,.7951648350,-.5335345508e-1
-.1926204871,.8221335798,.1359518057e-1
-.1976056061+.2011286055*I,.3824053699+.2444753464*I,-1.047197552+.6859721074*I
-.2165063475+.1737495171*I,.3979549128+.2111955850*I,-1.047197551+.6029666258*I
-.2354070862+.1428588531*I,.4135044525+.1736474407*I,-1.047197552+.5046618327*I
-.2543078254+.1054133995*I,.4290539936+.1281318356*I,-1.047197551+.3792356489*I
-.2732085645+.4794678747e-1*I,.4446035339+.5828016095e-1*I,-1.047197551+.1757518513*I
-.2144522397,.5545465972,-.7570178912
-.1932112431,.6188891220,-.5982417885
-.1841749990,.6683965564,-.4803708565
-.1811281792,.7106237385,-.3812269325
-.1819357506,.7481658405,-.2932988668
-.1855544421,.7822909783,-.2129484786
-.1913815387,.8137317602,-.1380803550
-.1990324062,.8429557170,-.6735201314e-1
-.1952239906+.2335860818*I,.4182850101+.2839279786*I,-1.047197551+.7793222040*I
-.2141247318+.2089690982*I,.4338345522+.2540056033*I,-1.047197551+.7090216117*I
-.2330254718+.1823658076*I,.4493840929+.2216688366*I,-1.047197552+.6295105234*I
-.2519262100+.1527418358*I,.4649336333+.1856603798*I,-1.047197551+.5366405770*I
-.2708269490+.1178406774*I,.4804831737+.1432374098*I,-1.047197551+.4215799888*I
-.2897276884+.7018802156e-1*I,.4960327144+.8531477102e-1*I,-1.047197551+.2558059956*I
-.2490454454,.5840064129,-.8258636932
-.2200905984,.6577252595,-.6402008417
-.2083995344,.7104596729,-.5136773677
-.2038433560,.7545215065,-.4099399603
-.2036203954,.7933162388,-.3190956261
-.2064625080,.8283853216,-.2367126734
-.2116665878,.8605833909,-.1603460285
-.997053838e-1,.2844949397,-.1380627037
-.1073566578,.3137183998,-.6733524569e-1
-.1165696618,.3410435532,.1787052759e-3
-.1271578328,.3666971669,.6515449788e-1
-.1389842098,.3908457176,.1281071668
-.1519462828,.4136138112,.1894446194
-.1659665988,.4350955916,.2495009382
-.1809867188,.4553620937,.3085583791
-.1969632208,.4744660954,.3668625985
-.2138650378,.4924453599,.4246337475
-.2316717088,.5093247599,.4820749483
-.2503722878,.5251175983,.5393792009
-.2699647928,.5398262860,.5967353969
-.888098515e-1,.3030769677,-.1877369291
-.952733867e-1,.3337441469,-.1143569255
-.1034637052,.3623123921,-.4477569746e-1
-.1131475236,.3890652615,.2183672690e-1
-.1241568083,.4142070032,.8609522818e-1
-.1363672712,.4378886915,.1484748882
-.1496854942,.4602238781,.2093562928
-.1640408372,.4812984275,.2690544217
-.1793801732,.5011769162,.3278380328
-.1956643942,.5199068806,.3859433101
-.2128660822,.5375216465,.4435839512
-.2309680042,.5540421632,.5009590370
-.2499622052,.5694780989,.5582595773
-.802174167e-1,.3202975893,-.2422530145
-.852728200e-1,.3526763785,-.1655229180
-.922778025e-1,.3826854199,-.9337298299e-1
-.1009317820,.4106900775,-.2474695769e-1
-.1110238297,.4369467368,.4111082315e-1
-.1224006318,.4616417540,.1047676598
-.1349481292,.4849137705,.1666668126
-.1485803470,.5068672912,.2271669275
-.1632322912,.5275813168,.2865675704
-.1788552943,.5471150027,.3451266113
-.1954139155,.5655114288,.4030726359
-.2128838837,.5828000959,.4606142594
-.2312507867,.5989985246,.5179475318
-.743243235e-1,.3357500130,-.3027200320
-.776636158e-1,.3702147652,-.2216441500
-.832654436e-1,.4019293652,-.1462388373
-.907268299e-1,.4313836387,-.7509876813e-1
-.997749622e-1,.4589091963,-.7261450786e-2
-.1102163700,.4847412015,.5797115039e-1
-.1219094232,.5090518111,.1211289301
-.1347482904,.5319696632,.1826298823
-.1486530563,.5535918972,.2428151233
-.1635633760,.5739918621,.3019718657
-.1794342963,.5932242008,.3603492666
-.1962334647,.6113282369,.4181698750
-.2139392936,.6283302120,.4756383605
-.717000772e-1,.3488319426,-.3708060613
-.728666473e-1,.3859376775,-.2838778234
-.767600832e-1,.4197288584,-.2042342843
-.828099123e-1,.4508989057,-.1298919905
-.906488801e-1,.4798942223,-.5956789936e-1
-.1000253538,.5070206750,.7629325788e-2
-.1107594012,.5324969722,.7235332786e-1
-.1227185729,.5564841096,.1351048639
-.1358035780,.5791027773,.1962821043
-.1499393662,.6004441983,.2562123342
-.1650693647,.6205771409,.3151730130
-.1811516593,.6395525497,.3734064220
-.1981564546,.6574066435,.4311304021
-.732283042e-1,.3585778994,-.4492230593
-.714868253e-1,.3992184186,-.3539674901
-.732177173e-1,.4356382115,-.2685930505
-.775473914e-1,.4688991364,-.1900580527
-.839533335e-1,.4996363219,-.1165452269
-.920945867e-1,.5282642053,-.4686123346e-1
-.1017353812,.5550693712,.1983220508e-1
-.1127060603,.5802580375,.8415523478e-1
-.1248812195,.6039826408,.1465864491
-.1381666304,.6263577093,.2075088255
-.1524910461,.6474698526,.2672390425
-.1678008599,.6673842250,.3260470421
-.1840565747,.6861488394,.3841698486
-.804555981e-1,.3632399825,-.5429497461
-.744629906e-1,.4090478254,-.4347552732
-.732963871e-1,.4489895737,-.3411847088
-.754432904e-1,.4849036947,-.2569411254
-.800979409e-1,.5177696046,-.1792205648
-.867711150e-1,.5481819643,-.1063208471
-.951404437e-1,.5765326186,-.3711184712e-1
-.1049815174,.6030943407,.2920685039e-1
-.1161321149,.6280643146,.9323128632e-1
-.1284719688,.6515887255,.1554239786
-.1419105758,.6737775833,.2161568747
-.1563794982,.6947140739,.2757388888
-.1718273432,.7144606671,.3344344979
-.967474247e-1,.3588894858,-.6633510487
-.834402222e-1,.4135883445,-.5314805600
-.780235389e-1,.4586961398,-.4250824461
-.772309341e-1,.4981832842,-.3325984572
-.796515446e-1,.5337647112,-.2490918608
-.845215636e-1,.5663688363,-.1719055264
-.913727455e-1,.5965648257,-.9940965120e-1
-.998945826e-1,.6247301034,-.3051436973e-1
-.1098699822,.6511285505,.3555642593e-1
-.1211415459,.6759514876,.9938319127e-1
-.1335923608,.6993410250,.1614180225
-.1471343646,.7214042009,.2220256663
-.1617009753,.7422219507,.2815099911
-.1350339540,.3300112024,-.8562291545
-.1020135500,.4086718036,-.6561996704
-.892180806e-1,.4627486435,-.5260281757
-.840691607e-1,.5075309648,-.4204610621
-.834524198e-1,.5468043449,-.3284852817
-.860025653e-1,.5822283166,-.2453254857
-.909749388e-1,.6147080312,-.1683914615
-.979109712e-1,.6448008824,-.9608678513e-1
-.1065056673,.6728775981,-.2734026225e-1
-.1165453535,.6991979051,.3861287900e-1
-.1278748934,.7239503703,.1023457931
-.1403789538,.7472751857,.1643056854
-.1539706271,.7692779884,.2248539244
-.1762319763+.7717623490e-1*I,.3000561559+.9380906689e-1*I,-1.047197551+.2806538872*I
-.1443660554,.3773134617,-.8590415608
-.1109456170,.4564603098,-.6575925408
-.980513756e-1,.5106572082,-.5270935305
-.928504354e-1,.5555027631,-.4213651820
-.921994298e-1,.5948177886,-.3292905313
-.947242956e-1,.6302724916,-.2460631500
-.996766719e-1,.6627765103,-.1690799172
-.1065961148,.6928895285,-.9673792099e-1
-.1151765574,.7209835704,-.2796235185e-1
-.1252036606,.7473191690,.3801376114e-1
-.1365218490,.7720854327,.1017650064
-.1490154811,.7954229247,.1637395351
-.1676362444+.1251090943*I,.3334180049+.1520722980*I,-1.047197551+.4460233036*I
-.1865369833+.8123966092e-1*I,.3489675453+.9874823237e-1*I,-1.047197551+.2950257993*I
-.1610649334,.4184529902,-.8829705437
-.1240678549,.5019473084,-.6687879161
-.1103638141,.5571285306,-.5355962966
-.1047424630,.6024851018,-.4285611982
-.1038162826,.6421346108,-.3356900272
-.1061388608,.6778351960,-.2519201240
-.1109316013,.7105332578,-.1745426051
-.1177188276,.7408069867,-.1019020574
-.1261858168,.7690389322,-.3289431578e-1
-.1361128706,.7954961441,.3326538285e-1
-.1473408690,.8203720340,.9716304651e-1
-.1610329447+.1631951457*I,.3675871336+.1983665614*I,-1.047197551+.5699273703*I
-.1799336843+.1304817999*I,.3831366746+.1586029159*I,-1.047197551+.4639326955*I
-.1988344246+.8889274828e-1*I,.3986862161+.1080506943*I,-1.047197551+.3219320719*I
-.1905675144,.4472585078,-.9469315113
-.1423252057,.5444216022,-.6923109553
-.1268223955,.6017892608,-.5530940752
-.1203055207,.6482343562,-.4432541078
-.1188035186,.6885837857,-.3487026037
-.1207070148,.7247937738,-.2637988987
-.1251711750,.7578912281,-.1856021420
-.1316875064,.7884942344,-.1123435629
-.1399228458,.8170077543,-.4285635538e-1
-.1496461719,.8437126010,.2368192138e-1
-.1567930493+.1978995696*I,.4027138498+.2405503966*I,-1.047197552+.6763861898*I
-.1756937868+.1701760787*I,.4182633897+.2068520078*I,-1.047197551+.5918448744*I
-.1945945276+.1387051950*I,.4338129307+.1685985965*I,-1.047197552+.4910767252*I
-.2134952657+.1000097094*I,.4493624705+.1215635553*I,-1.047197552+.3606149235*I
-.2323960048+.3533169490e-1*I,.4649120115+.4294629471e-1*I,-1.047197551+.1298133328*I
-.1675011117,.5823166116,-.7333277443
-.1485086656,.6439259825,-.5822704629
-.1404003665,.6923054837,-.4673799417
-.1379096912,.7338566619,-.3699028208
-.1391070197,.7709250095,-.2830598423
-.1430240957,.8046874546,-.2034768159
-.1490931457,.8358341388,-.1291796478
-.1569483805,.8648096810,-.5889030719e-1
-.624613607e-1,.2872115467,-.6906734907e-1
-.716377097e-1,.3145812541,-.1481846013e-2
-.821932207e-1,.3402745663,.6355079370e-1
-.939899037e-1,.3644592102,.1265488701
-.1069245177,.3872606808,.1879225089
-.1209190657,.4087737831,.2480073401
-.1359146857,.4290700640,.3070867114
-.1518676177,.4482027155,.3654070510
-.1687465097,.4662098466,.4231890356
-.1865306487,.4831166349,.4806361254
-.2052088587,.4989366627,.5379414990
-.2247789367,.5136726100,.5952940795
-.2452475367,.5273163891,.6528842016
-.495915062e-1,.3072700376,-.1146377725
-.577755350e-1,.3358459265,-.4504339166e-1
-.674538367e-1,.3626055020,.2157940579e-1
-.784581695e-1,.3877532621,.8584616904e-1
-.906641035e-1,.4114404570,.1482324328
-.1039781165,.4337807607,.2091190817
-.1183294895,.4548601349,.2688213171
-.1336650365,.4747432298,.3276080489
-.1499455975,.4934776426,.3857155660
-.1671437135,.5110967508,.4433576387
-.1852421125,.5276215500,.5007333922
-.2042328045,.5430617514,.5580338560
-.2241166805,.5574162719,.6154478073
-.387165612e-1,.3262988913,-.1641728165
-.457538986e-1,.3562686040,-.9209530139e-1
-.544357202e-1,.3842394168,-.2352570678e-1
-.645523764e-1,.4104661639,.4228740670e-1
-.759514036e-1,.4351341686,.1059086062
-.885193363e-1,.4583813454,.1677793060
-.1021706360,.4803116710,.2282568844
-.1168406426,.5010037421,.2876400146
-.1324809520,.5205163916,.3461859301
-.1490563433,.5388924333,.4041227802
-.1665427340,.5561611385,.4616588892
-.1849258830,.5723398193,.5189901373
-.2042006510,.5874347207,.5763062214
-.301185984e-1,.3440215293,-.2184129362
-.358044904e-1,.3756339487,-.1432087101
-.433364962e-1,.4050023845,-.7222261335e-1
-.524458831e-1,.4324534841,-.4505897236e-2
-.629417752e-1,.4582192633,.6063096041e-1
-.746842913e-1,.4824697495,.1237122755
-.875688424e-1,.5053320736,.1851522654
-.1015164317,.5269022540,.2452894060
-.1164674267,.5472527783,.3044090597
-.1323774433,.5664375940,.3627590691
-.1492146085,.5844954451,.4205610869
-.1669577508,.6014520644,.4780191969
-.1855952778,.6173215441,.5353269131
-.241786709e-1,.3600543332,-.2784039984
-.282296625e-1,.3936540012,-.1991628119
-.344077618e-1,.4246681342,-.1251209002
-.423553934e-1,.4535313687,-.5502827358e-1
-.518267351e-1,.4805425075,.1198694178e-1
-.626456050e-1,.5059157000,.7656614112e-1
-.746821173e-1,.5298088290,.1392020011
-.878388187e-1,.5523403486,.2002871602
-.1020420351,.5735998105,.2601450416
-.1172362650,.5936546778,.3190503714
-.1333804652,.6125548392,.3772435165
-.1504455754,.6303356184,.4349410092
-.1684129012,.6470197399,.4923436872
-.214372636e-1,.3738360446,-.3456993986
-.234384220e-1,.4099273216,-.2610610807
-.279788951e-1,.4429320162,-.1830555051
-.345579915e-1,.4734587291,-.1099408740
-.428469076e-1,.5019071279,-.4056519395e-1
-.526172854e-1,.5285547820,.2588508581e-1
-.637043137e-1,.5536020248,.9001439683e-1
-.759859304e-1,.5771972249,.1522908597
-.893703292e-1,.5994519738,.2130902725
-.1037880866,.6204506570,.2727242584
-.1191870325,.6402566886,.3314592049
-.1355288414,.6589166529,.3895296351
-.1527867660,.6764630637,.4471481298
-.227167704e-1,.3844828105,-.4227781380
-.220120791e-1,.4238630952,-.3305484206
-.244973774e-1,.4593658920,-.2472151718
-.294184759e-1,.4919079288,-.1701548837
-.363119826e-1,.5220524745,-.9775448003e-1
-.448701493e-1,.5501735922,-.2893346569e-1
-.548775947e-1,.5765330866,.3707859851e-1
-.661780523e-1,.6013209037,.1008585217
-.786553977e-1,.6246781914,.1628559450
-.922221466e-1,.6467112910,.2234339345
-.1068121533,.6675006012,.2828951597
-.1223758384,.6871063896,.3414996901
-.1388770052,.7055726519,.3994776347
-.294119515e-1,.3904404545,-.5140562215
-.248378688e-1,.4345240533,-.4102637446
-.246029239e-1,.4733333528,-.3193851109
-.274361117e-1,.5084132844,-.2369785100
-.326330884e-1,.5406199899,-.1605945462
-.397558815e-1,.5704858297,-.8870770081e-1
-.485113141e-1,.5983671682,-.2028676799e-1
-.586930825e-1,.6245147706,.4540861721e-1
-.701509514e-1,.6491112513,.1089358646
-.827730187e-1,.6722926262,.1707315718
-.964748933e-1,.6941614787,.2311497814
-.1111927900,.7147953363,.2904868067
-.1268790055,.7342521875,.3489982341
-.443809229e-1,.3884089336,-.6290454464
-.334284750e-1,.4402455482,-.5049465920
-.292801640e-1,.4838116119,-.4024600371
-.293317447e-1,.5222726349,-.3123990773
-.323789817e-1,.5570923866,-.2305578378
-.377466776e-1,.5890915739,-.1545886079
-.450119457e-1,.6187842353,-.8301769291e-1
-.538903404e-1,.6465161129,-.1484340371e-1
-.641810396e-1,.6725313072,.5065651591e-1
-.757374727e-1,.6970079808,.1140277397
-.884503162e-1,.7200790164,.1756989422
-.1022370747,.7418446893,.2360186629
-.1170354185,.7623807626,.2952793510
-.766865212e-1,.3675898174,-.7994476672
-.509191887e-1,.4374341813,-.6249617579
-.402309579e-1,.4889496344,-.5017271331
-.362307945e-1,.5323356217,-.3996932138
-.363828173e-1,.5706745578,-.3099177020
-.395054203e-1,.6054026975,-.2282746466
-.449334041e-1,.6373286097,-.1524511507
-.522490910e-1,.6669599844,-.8099145215e-1
-.611710696e-1,.6946388838,-.1290407983e-1
-.715004299e-1,.7206070868,.5252692374e-1
-.830918811e-1,.7450411942,.1158431223
-.958370049e-1,.7680729925,.1774704269
-.1096539723,.7898019460,.2377554513
-.1334731280+.6520694618e-1*I,.3195760498+.7926018654e-1*I,-1.047197551+.2379991853*I
-.876663998e-1,.4137786517,-.8064670738
-.610816763e-1,.4846165669,-.6291231167
-.501241720e-1,.5364593250,-.5050077132
-.459730367e-1,.5800288255,-.4025125116
-.460227065e-1,.6184921688,-.3124461208
-.490685113e-1,.6533136602,-.2306011135
-.544350635e-1,.6853142445,-.1546290994
-.616993746e-1,.7150080673,-.8305607474e-1
-.705769428e-1,.7427409499,-.1488013376e-1
-.808669088e-1,.7687570346,.5062109360e-1
-.924226778e-1,.7932345141,.1139933600
-.1051349102,.8163062944,.1756653991
-.1255074565+.1185836201*I,.3531931825+.1441404696*I,-1.047197551+.4240896208*I
-.1444081952+.7136373183e-1*I,.3687427227+.8674386743e-1*I,-1.047197551+.2599976746*I
-.1050600367,.4550948184,-.8308991491
-.754619612e-1,.5295955168,-.6429710515
-.635835493e-1,.5825576600,-.5158305933
-.589253819e-1,.6267434617,-.4117793516
-.586342271e-1,.6656210858,-.3207397285
-.614255876e-1,.7007518606,-.2382222169
-.665892910e-1,.7329990110,-.1617570808
-.736843674e-1,.7628985396,-.8980849233e-1
-.824159136e-1,.7908089118,-.2133940259e-1
-.925765453e-1,.8169822060,.4439412609e-1
-.1040153067,.8416019117,.1079518148
-.1196443370+.1587944435*I,.3876622118+.1930174303*I,-1.047197552+.5559820319*I
-.1385450774+.1252131769*I,.4032117534+.1521988120*I,-1.047197552+.4463715462*I
-.1574458146+.8139153501e-1*I,.4187612923+.9893283786e-1*I,-1.047197552+.2955618323*I
-.1322375938,.4879260474,-.8839557919
-.950863904e-1,.5716077090,-.6692228514
-.813503074e-1,.6268278796,-.5359244237
-.757125434e-1,.6722044005,-.4288381774
-.747756832e-1,.7118668899,-.3359360097
-.770904362e-1,.7475769863,-.2521450580
-.818770150e-1,.7802825368,-.1747522731
-.886591458e-1,.8105624584,-.1021001806
-.971217678e-1,.8387997123,-.3308346701e-1
-.1070449742,.8652616017,.3308332421e-1
-.271974460e-1,.2881166631,-.4048211784e-2
-.377023720e-1,.3138714606,.6107281577e-1
-.494530950e-1,.3381119724,.1241414878
-.623452270e-1,.3609650798,.1855713960
-.762999260e-1,.3825266188,.2457005891
-.912576760e-1,.4028689322,.3048141169
-.1071741870,.4220458540,.3631596106
-.1240176650,.4400960309,.4209585706
-.1417670100,.4570451123,.4784149891
-.1604106900,.4729071127,.5357223254
-.1799461580,.4876851284,.5930695614
-.2003797220,.5013714925,.6506468704
-.2217268640,.5139473892,.7086513930
-.126112080e-1,.3093625870,-.4627714102e-1
-.222640619e-1,.3361530934,.2039355887e-1
-.332455604e-1,.3613286114,.8469848445e-1
-.454306105e-1,.3850411896,.1471152285
-.587252135e-1,.4074050863,.2080261075
-.730582915e-1,.4285066988,.2677473141
-.883763735e-1,.4484110221,.3265484656
-.1046400705,.4671659335,.3846663442
-.1218217265,.4848050491,.4423150516
-.1399038935,.5013495781,.4996939196
-.1588784195,.5168094298,.5569940694
-.1787460345,.5311837156,.6144042689
-.1995163895,.5444607054,.6721165838
.2054759e-3,.3298148757,-.9186211815e-1
-.84814224e-2,.3577795176,-.2330280065e-1
-.186025669e-1,.3840008097,.4250217732e-1
-.300056477e-1,.4086638848,.1061168803
-.425773093e-1,.4319065304,.1679823995
-.562320913e-1,.4538326235,.2284558741
-.709053940e-1,.4745206874,.2878358141
-.865488625e-1,.4940294973,.3463793419
-.1031273152,.5124018179,.4043145243
-.1206167050,.5296668787,.4618496333
-.1390028200,.5458419538,.5191805192
-.1582805520,.5609332521,.5764968664
-.1784536410,.5749362301,.6339879265
.110399196e-1,.3492736951,-.1413270623
.34642066e-2,.3785890036,-.7043595237e-1
-.56831281e-2,.4059939782,-.2793674108e-2
-.162127985e-1,.4317186993,.6228406556e-1
-.279859992e-1,.4559318880,.1253181650
-.408989048e-1,.4787597451,.1867205139
-.548730870e-1,.5002976021,.2468279767
-.698493505e-1,.5206174116,.3059247677
-.857836650e-1,.5397726936,.3642579288
-.1026444522,.5578018312,.4220485553
-.1204108007,.5747302433,.4795003790
-.1390713543,.5905717330,.5368067204
-.1586237337,.6053291936,.5941565329
.196164866e-1,.3674744441,-.1953813949
.133433826e-1,.3983730960,-.1215608023
.53151096e-2,.4271383095,-.5163896162e-1
-.42267433e-2,.4540637399,.1524183636e-1
-.151087369e-1,.4793602060,.7971405449e-1
-.272028634e-1,.5031833032,.1422644456
-.404130218e-1,.5256498442,.2032816019
-.546665520e-1,.5468481487,.2630861123
-.699087448e-1,.5668447165,.3219506999
-.860992009e-1,.5856886532,.3801143263
-.1032094062,.6034146187,.4377925685
-.1212211496,.6200447490,.4951856675
-.1401255685,.6355898167,.5524851740
.255658266e-1,.3840527395,-.2550194934
.208581896e-1,.4168542447,-.1774307766
.141412886e-1,.4472134533,-.1046306030
.57345386e-2,.4755186229,-.3549886927e-1
-.41394644e-2,.5020403198,.3075880164e-1
-.153196940e-1,.5269742749,.9473458425e-1
-.276867121e-1,.5504656674,.1568884183
-.411506183e-1,.5726237741,.2175904722
-.556434314e-1,.5935312255,.2771484091
-.711141192e-1,.6132500535,.3358258243
-.875252898e-1,.6318257080,.3938552878
-.1048509942,.6492897306,.4514480681
-.1230753089,.6656614773,.5088017784
.283698826e-1,.3984807925,-.3217025100
.256083156e-1,.4336477793,-.2391059202
.204682956e-1,.4659237139,-.1625829483
.133929356e-1,.4958472107,-.9059037485e-1
.46783746e-2,.5237782303,-.2208698900e-1
-.54672311e-2,.5499697884,.4367369854e-1
-.168924130e-1,.5746060000,.1072530602
-.294844036e-1,.5978239353,.1690903674
-.431581746e-1,.6197269473,.2295415033
-.578494558e-1,.6403931578,.2889040917
-.735101552e-1,.6598810232,.3474346303
-.901053082e-1,.6782330435,.4053607507
-.1076110561,.6954782206,.4628904411
.272532146e-1,.4099396055,-.3977261444
.270301426e-1,.4481921760,-.3081521847
.238541236e-1,.4828553899,-.2266493003
.183833566e-1,.5147292963,-.1509290127
.110318556e-1,.5443171389,-.7954812166e-1
.20788956e-2,.5719583796,-.1152236918e-1
-.82779620e-2,.5978931585,.5385975827e-1
-.198943320e-1,.6222969771,.1171369351
-.326624355e-1,.6453008442,.1787331133
-.465009156e-1,.6670036494,.2389935436
-.613483179e-1,.6874800918,.2982083607
-.771587982e-1,.7067858957,.3566287775
-.938992610e-1,.7249612897,.4144787656
.209344836e-1,.4170228583,-.4870796557
.242754116e-1,.4596075344,-.3870484644
.236717746e-1,.4973975217,-.2985486318
.202081886e-1,.5317111944,-.2177963092
.145063026e-1,.5633041723,-.1426302595
.69608486e-2,.5926562609,-.7167341587e-1
-.21602116e-2,.6200931728,-.3979617477e-2
-.126664922e-1,.6458463248,.6113903902e-1
-.244184439e-1,.6700853421,.1242058178
-.373117124e-1,.6929370686,.1856342171
-.512674769e-1,.7144973121,.2457622186
-.662262387e-1,.7348383950,.3048748291
-.821437233e-1,.7540141335,.3632196463
.69100766e-2,.4168745371,-.5979713438
.159302516e-1,.4663624376,-.4801522346
.189675676e-1,.5085780680,-.3810369155
.181533806e-1,.5461121291,-.2931273510
.145296466e-1,.5802311386,-.2127899925
.86984726e-2,.6116669638,-.1379315441
.10441676e-2,.6408867436,-.6721062730e-1
-.81714702e-2,.6682086940,.2981865305e-3
-.187619891e-1,.6938594544,.6526990072e-1
-.305905020e-1,.7180054103,.1282193120
-.435545495e-1,.7407711032,.1895541670
-.575767190e-1,.7622506304,.2496084402
-.725986012e-1,.7825149894,.3086643064
-.218131507e-1,.4012296897,-.7545562305
-.8144987e-3,.4652776381,-.5966150421
.81252766e-2,.5146678103,-.4790550973
.111149746e-1,.5568255622,-.3800830346
.102676186e-1,.5943193083,-.2922661877
.66185876e-2,.6284075666,-.2119941810
.7669539e-3,.6598185234,-.1371842454
-.69045992e-2,.6890173367,-.6650057862e-1
-.161352397e-1,.7163210528,.9790144272e-3
-.267391314e-1,.7419555561,.6592750226e-1
-.385798074e-1,.7660867281,.1288583651
-.515551062e-1,.7888387451,.1901784396
-.655878364e-1,.8103054345,.2502210687
-.909140912e-1+.5128227801e-1*I,.3391769020+.6233450820e-1*I,-1.047197551+.1878409369*I
-.341954226e-1,.4466431586,-.7648440609
-.121699341e-1,.5119392451,-.6033606329
-.28271545e-2,.5618192772,-.4844998476
.4001078e-3,.6042657948,-.3848120195
-.2821662e-3,.6419601963,-.2965329841
-.38054773e-2,.6762012721,-.2159356730
-.95555315e-2,.7077357002,-.1408844318
-.171415103e-1,.7370385326,-.7001559211e-1
-.262977613e-1,.7644326680,-.2390777253e-2
-.368353714e-1,.7901477386,.6267309402e-1
-.486157867e-1,.8143521572,.1256961149
-.615353607e-1,.8371719079,.1870896332
-.836113527e-1+.1120938250*I,.3730626376+.1362520097*I,-1.047197552+.4020831570*I
-.1025120912+.6061901710e-1*I,.3886121782+.7368347828e-1*I,-1.047197551+.2215319204*I
-.526224337e-1,.4877776510,-.7909468254
-.278176740e-1,.5564519932,-.6198188785
-.174576237e-1,.6075685359,-.4976553420
-.136431276e-1,.6507288424,-.3961873769
-.139215735e-1,.6889141064,-.3067702727
-.171392814e-1,.7235266460,-.2253766281
-.226434717e-1,.7553599257,-.1497368349
-.300229713e-1,.7849137353,-.7841744588e-1
-.390001640e-1,.8125255196,-.1043979788e-1
-.493785382e-1,.8384341446,.5490417007e-1
-.610144139e-1,.8628142537,.1181508773
.63238646e-2,.2874849987,.5773784462e-1
-.53648440e-2,.3118008883,.1209023599
-.181997010e-1,.3347236155,.1824086835
-.321007080e-1,.3563504179,.2425981633
-.470074590e-1,.3767547210,.3017581775
-.628749490e-1,.3959912283,.3601379974
-.796707860e-1,.4140993148,.4179602524
-.973733430e-1,.4311052666,.4754296628
-.1159706110,.4470236811,.5327400822
-.1354595830,.4618582145,.5900805837
-.1558461010,.4756017648,.6476411398
-.1771451520,.4882361144,.7056183765
-.1993816450,.4997309887,.7642219014
.224344756e-1,.3097066172,.1830261533e-1
.114933046e-1,.3349311522,.8267514030e-1
-.6548820e-3,.3586885393,.1451458879
-.139152350e-1,.3810940670,.2060997017
-.282160400e-1,.4022349090,.2658545473
-.435033240e-1,.4221766675,.3246812904
-.597372900e-1,.4409677172,.3828175930
-.768899350e-1,.4586420968,.4404781497
-.949435010e-1,.4752213909,.4978626566
-.1138895480,.4907158591,.5551624045
-.1337285240,.5051249560,.6125661495
-.1544697900,.5184373037,.6702657625
-.1761320940,.5306301141,.7284621450
.369481756e-1,.3313109215,-.2404678114e-1
.268420156e-1,.3575504267,.4178537235e-1
.154524686e-1,.3822299533,.1054217613
.28932536e-2,.4054877271,.1673045905
-.107499056e-1,.4274279485,.2277917752
-.254122054e-1,.4481293862,.2871823678
-.410451307e-1,.4676510117,.3457338760
-.576133661e-1,.4860357515,.4036746327
-.750927488e-1,.5033129752,.4612130877
-.934689648e-1,.5195000833,.5185451920
-.1127368058,.5346034049,.5758606674
-.1328999118,.5486185158,.6333487380
-.1539709528,.5615300159,.6912038223
.496979706e-1,.3521468381,-.6969645313e-1
.405349526e-1,.3795327493,-.2084879735e-2
.299913156e-1,.4052404950,.6296847193e-1
.182054246e-1,.4294382574,.1259830913
.52807876e-2,.4522518555,.1873699145
-.87043991e-2,.4737763362,.2474651382
-.236911215e-1,.4940834324,.3065525062
-.396354951e-1,.5132264871,.3648787300
-.565060639e-1,.5312437352,.4226646780
-.742820232e-1,.5481604651,.4801139349
-.929521155e-1,.5639903606,.5374197444
-.1125140555,.5787361997,.5947710425
-.1329744159,.5923899935,.6523581258
.604736956e-1,.3720212882,-.1191540597
.523911166e-1,.4007204926,-.4934675141e-1
.428017286e-1,.4275881436,.1744384916e-1
.318771436e-1,.4528328388,.8184425598e-1
.197441136e-1,.4766086485,.1443372790
.64978356e-2,.4990312864,.2053088070
-.77897085e-2,.5201882455,.2650775342
-.230643423e-1,.5401453807,.3239148498
-.392860998e-1,.5589512708,.3820587771
-.564268341e-1,.5766401279,.4397242550
-.744686608e-1,.5932336916,.4971111317
-.934030206e-1,.6087423651,.5544107702
-.1132302472,.6231657444,.6118119238
.690044126e-1,.3906797896,-.1731036049
.621822576e-1,.4209110604,-.1005421306
.536853206e-1,.4491066048,-.3159584375e-1
.437318746e-1,.4755317367,.3451527765e-1
.324800966e-1,.5003787247,.9837420536e-1
.200474446e-1,.5237903378,.1604347168
.65223746e-2,.5458740985,.2210627296
-.80282279e-2,.5667113060,.2805629243
-.235541973e-1,.5863629387,.3391967833
-.400188541e-1,.6048735800,.3971954057
-.573968611e-1,.6222740279,.4547690773
-.756728441e-1,.6385829702,.5121148257
-.948405957e-1,.6538079527,.5694227804
.749295516e-1,.4077740140,-.2324975162
.696132446e-1,.4398356691,-.1564037512
.623909096e-1,.4695805164,-.8473789203e-1
.535496006e-1,.4973574696,-.1648944217e-1
.432917756e-1,.5234126244,.4906927123e-1
.317651056e-1,.5479254748,.1124874285
.190796856e-1,.5710298434,.1741960776
.53185806e-2,.5928267003,.2345454118
-.94554419e-2,.6133923371,.2938290341
-.251954884e-1,.6327837551,.3523006129
-.418675889e-1,.6510422446,.4101858136
-.594487465e-1,.6681957593,.4676913325
-.779257017e-1,.6842604166,.5250121197
.777481426e-1,.4228036055,-.2987226819
.742897256e-1,.4571235580,-.2179569364
.685920046e-1,.4887215986,-.1427809478
.610500526e-1,.5180779448,-.7181648726e-1
.519320326e-1,.5455185517,-.4116722101e-2
.414284576e-1,.5712749929,.6100667399e-1
.296789646e-1,.5955169967,.1240772352
.167879666e-1,.6183714838,.1855086523
.28343316e-2,.6399343164,.2456390345
-.121224073e-1,.6602778590,.3047534791
-.280379463e-1,.6794559621,.3630996473
-.448804795e-1,.6975072879,.4208990647
-.626288953e-1,.7144574977,.4783557359
.767205876e-1,.4350015780,-.3739296168
.756608216e-1,.4722371336,-.2867048308
.718493506e-1,.5061279433,-.2068511097
.658660946e-1,.5373789118,-.1323522080
.580834266e-1,.5664426627,-.6190759293e-1
.487560396e-1,.5936287809,.5384327021e-2
.380658346e-1,.6191583683,.7018363518e-1
.261466006e-1,.6431940519,.1329953301
.130985916e-1,.6658576872,.1942204746
-.10024279e-2,.6872413712,.2541883812
-.160993253e-1,.7074145478,.3131779322
-.321497359e-1,.7264287123,.3714324167
-.491234826e-1,.7443205461,.4291703600
.706509136e-1,.4430762875,-.4617792373
.729070806e-1,.4843424185,-.3650005012
.715437886e-1,.5212090342,-.2786164410
.674988836e-1,.5548161013,-.1993597504
.613257476e-1,.5858362659,-.1253062523
.533823246e-1,.6147046168,-.5520468747e-1
.439146606e-1,.6417202242,.1181755487e-1
.330990806e-1,.6670974181,.7640235365e-1
.210655696e-1,.6909941959,.1390426833
.79116526e-2,.7135290990,.2001313977
-.62889440e-2,.7347917451,.2599920727
-.214806774e-1,.7548496466,.3188995360
-.376224712e-1,.7737527337,.3770942312
.572902886e-1,.4444958781,-.5695328219
.646879876e-1,.4920116328,-.4569073957
.667426636e-1,.5330328461,-.3607265526
.652360106e-1,.5697252034,-.2747373729
.610803156e-1,.6031976044,-.1957623320
.548167576e-1,.6341078599,-.1219195463
.467965936e-1,.6628829297,-.5198057087e-1
.372618346e-1,.6898169843,.1491371907e-1
.263861956e-1,.7151211744,.7939667745e-1
.142978706e-1,.7389513239,.1419556479
.10930981e-2,.7614244106,.2029796285
-.131553618e-1,.7826288773,.2627894921
-.283927203e-1,.8026313218,.3216581645
.309067626e-1,.4325481075,-.7167354230
.484295806e-1,.4923711212,-.5706868924
.558906256e-1,.5399638726,-.4578601822
.579845266e-1,.5810327653,-.3615631035
.565058376e-1,.6177591141,-.2754970099
.523717806e-1,.6512578144,-.1964670520
.461258976e-1,.6821895540,-.1225831494
.381207426e-1,.7109828702,-.5261243021e-1
.285991146e-1,.7379328842,.1430684705e-1
.177352336e-1,.7632513655,.7880969349e-1
.56576426e-2,.7870945641,.1413845560
-.75371676e-2,.8095797600,.2024211772
-.217762490e-1,.8307956267,.2622409594
-.485647273e-1+.3303091505e-1*I,.3588627082+.4014965648e-1*I,-1.047197551+.1214026620*I
.172107106e-1,.4773376275,-.7299148723
.358940686e-1,.5385712975,-.5799135216
.438689596e-1,.5867886375,-.4654494259
.462784516e-1,.6282411378,-.3682143772
.450237766e-1,.6652397793,-.2815301867
.410625826e-1,.6989485987,-.2020599538
.349576386e-1,.7300516524,-.1278469494
.270720106e-1,.7589902541,-.5762243270e-1
.176548216e-1,.7860672151,.9496511744e-2
.68843836e-2,.8114992798,.7415824797e-1
-.51079561e-2,.8354460996,.1368600401
-.182237005e-1,.8580274036,.1979976793
.382819346e-1,.2855222748,.1168455917
.255190036e-1,.3085324289,.1784487670
.116853666e-1,.3302411205,.2387147253
-.31574400e-2,.3507231484,.2979338177
-.189635090e-1,.3700343159,.3563574081
-.356996880e-1,.3882149174,.4142095718
-.533436930e-1,.4052920402,.4716959662
-.718829130e-1,.4212810134,.5290109596
-.913137640e-1,.4361861939,.5863437621
-.1116415080,.4500011853,.6438841164
-.1328805190,.4627085151,.7018280309
-.1550550240,.4742787346,.7603840556
-.1782004160,.4846688261,.8197806755
.557685316e-1,.3085582875,.7979525247e-1
.436729196e-1,.3323795805,.1423434496
.304613846e-1,.3548444469,.2033588603
.162065576e-1,.3760411747,.2631620016
.9631280e-3,.3960362393,.3220255455
-.152285210e-1,.4148787258,.3801884169
-.323398900e-1,.4326032772,.4378661687
-.503527800e-1,.4492320140,.4952590271
-.692583400e-1,.4647756953,.5525585348
-.890566170e-1,.4792342627,.6099534404
-.1097565600,.4925968384,.6676353467
-.1313764740,.5048411741,.7258046108
-.1539449780,.5159324823,.7846769897
.717951406e-1,.3311138631,.4016246285e-1
.604362696e-1,.3558306759,.1038481180
.479052546e-1,.3791227281,.1657702787
.342884246e-1,.4010949527,.2262886190
.196510426e-1,.4218266785,.2857034324
.40419896e-2,.4413773212,.3442731007
-.125031160e-1,.4597901752,.4022265659
-.299598517e-1,.4770949280,.4597726809
-.483136647e-1,.4933092665,.5171076289
-.675591267e-1,.5084397913,.5744212165
-.876996527e-1,.5224823484,.6319026125
-.1087476817,.5354218206,.6897460329
-.1307253057,.5472313537,.7481568622
.862267076e-1,.3530706416,-.2345700132e-2
.756882096e-1,.3787846330,.6271662132e-1
.639069866e-1,.4029880706,.1257384034
.509866666e-1,.4258069150,.1871309357
.370055286e-1,.4473363177,.2472306601
.220226546e-1,.4676480920,.3063214927
.60819836e-2,.4867956460,.3646502664
-.107849862e-1,.5048172697,.4224379343
-.285574088e-1,.5217382989,.4798881339
-.472239908e-1,.5375724614,.5371941368
-.667824123e-1,.5523225776,.5945448861
-.872392103e-1,.5659807013,.6521306601
-.1086101085,.5785277196,.7101488565
.988968736e-1,.3742816168,-.4810652236e-1
.892818166e-1,.4011180673,.1863551313e-1
.783342196e-1,.4263347913,.8299724716e-1
.661801606e-1,.4500850403,.1454593754
.529143516e-1,.4724839377,.2064063365
.386084086e-1,.4936185325,.2661558104
.233162206e-1,.5135543305,.3249784650
.70775216e-2,.5323396271,.3831118210
-.100797416e-1,.5500083937,.4407704789
-.281378599e-1,.5665821550,.4981540756
-.470884384e-1,.5820711145,.5554538746
-.669319711e-1,.5964746726,.6128586336
-.876778652e-1,.6097813954,.6705602544
.1095970146,.3945594908,-.9761442922e-1
.1010357776,.4226768776,-.2879968034e-1
.910256226e-1,.4490330794,.3720742769e-1
.797227216e-1,.4738179252,.1009833929
.672431316e-1,.4971724852,.1629776587
.536742896e-1,.5192030404,.2235531451
.390823026e-1,.5399899446,.2830124228
.235167216e-1,.5595934295,.3416154883
.70137196e-2,.5780574610,.3995924015
-.104018041e-1,.5954123073,.4571527613
-.287148673e-1,.6116761783,.5144931853
-.479196332e-1,.6268561691,.5718036448
-.680191149e-1,.6409486170,.6292732141
.1180593706,.4136583528,-.1515327526
.1107220656,.4432634505,-.8012064339e-1
.1017813886,.4709196206,-.1207047926e-1
.914354346e-1,.4968676527,.5333101371e-1
.798289466e-1,.5212834827,.1166236522
.670699576e-1,.5442984269,.1782321615
.532400096e-1,.5660116041,.2385023367
.384007026e-1,.5864978868,.2977246884
.225979966e-1,.6058131395,.3561506972
.58650806e-2,.6239977076,.4140045196
-.117757222e-1,.6410787223,.4714918659
-.303117689e-1,.6570715526,.5288071320
-.497394435e-1,.6719805940,.5861395370
.1239296566,.4312432705,-.2107800146
.1180468556,.4626163439,-.1360438960
.1103490156,.4917832038,-.6541692655e-1
.1010955036,.5190591170,.2018172391e-2
.904712166e-1,.5446688313,.6693130369e-1
.786119876e-1,.5687774509,.1298339212
.656195236e-1,.5915086027,.1911314920
.515706766e-1,.6129557036,.2511564015
.365234226e-1,.6331892226,.3101897016
.205208076e-1,.6522614840,.3684762096
.35935836e-2,.6702098662,.4262354924
-.142380636e-1,.6870589062,.4836703046
-.329634448e-1,.7028215974,.5409734541
.1267195446,.4468364560,-.2766834395
.1226193386,.4803763044,-.1975674728
.1164010926,.5113416364,-.1236192100
.1084193986,.5401634694,-.5359882171e-1
.989182866e-1,.5671384202,.1335954893e-1
.880727716e-1,.5924792290,.7789351658e-1
.760119476e-1,.6163428048,.1404932343
.628326926e-1,.6388469102,.2015496341
.486082536e-1,.6600805750,.2613849383
.333937966e-1,.6801108555,.3202730250
.172300906e-1,.6989873091,.3784536653
.1459683e-3,.7167449783,.4361429837
-.178400816e-1,.7334063399,.4935415670
.1257163846,.4597128518,-.3512784038
.1238971096,.4960252136,-.2661452752
.1194986336,.5292025081,-.1877835284
.1130362526,.5598710911,-.1144008654
.1048469176,.5884405326,-.4481757852e-1
.951639626e-1,.6151944504,.2179646666e-1
.841554526e-1,.6403371344,.8605626225e-1
.719456986e-1,.6640196842,.1484369550
.586281336e-1,.6863556710,.2093191792
.442734116e-1,.7074309751,.2690179497
.289346686e-1,.7273101845,.3278020495
.126510206e-1,.7460408451,.3859076776
-.45501096e-2,.7636562905,.4435485427
.1197883336,.4686707313,-.4379710350
.1210810846,.5087658124,-.3440322414
.1190259576,.5447914889,-.2595402769
.1144432456,.5777448432,-.1816402796
.1078293696,.6082292825,-.1086052142
.995107426e-1,.6366415626,-.3929122878e-1
.897142536e-1,.6632574781,.2711036278e-1
.786037526e-1,.6882761929,.9120087556e-1
.663006396e-1,.7118452621,.1534463416
.528962366e-1,.7340756941,.2142211377
.384596006e-1,.7550514312,.2738358848
.230426166e-1,.7748355366,.3325562587
.66833726e-2,.7934743091,.3906162889
.1068726486,.4714203910,-.5433193467
.1128841076,.5172511456,-.4350658779
.1140628556,.5572076547,-.3414599027
.1119247996,.5931325303,-.2571924014
.1072770896,.6260068790,-.1794545451
.1006096406,.6564261980,-.1065417769
.922452086e-1,.6847828043,-.3732265262e-1
.824084426e-1,.7113497636,.2900404334e-1
.712617216e-1,.7363244477,.9303485201e-1
.589254186e-1,.7598531764,.1552326363
.454901196e-1,.7820460546,.2159695747
.310243196e-1,.8029863411,.2755547457
.155794596e-1,.8227365632,.3342527420
.820636746e-1,.4622759988,-.6838314805
.969022826e-1,.5188363069,-.5468462372
.1030945776,.5648868704,-.4380261466
.1043894986,.6049845897,-.3440810102
.1023359476,.6410121834,-.2595847712
.977544706e-1,.6739670367,-.1816816939
.911416116e-1,.7044527112,-.1086443062
.828238526e-1,.7328660499,-.3932851273e-1
.730281266e-1,.7594828935,.2707450130e-1
.619183136e-1,.7845024411,.9116614340e-1
.496158286e-1,.8080722754,.1534125167
.362120116e-1,.8303034189,.2141880314
.217759286e-1,.8512798277,.2738033413
.688161976e-1,.2823872025,.1737032368
.550635106e-1,.3041942913,.2340623159
.402974676e-1,.3247696270,.2933534895
.245650756e-1,.3441703501,.3518306958
.79004026e-2,.3624378670,.4097197866
-.96734740e-2,.3796002323,.4672275822
-.281432180e-1,.3956736546,.5245490996
-.475045550e-1,.4106633306,.5818737436
-.677620540e-1,.4245637055,.6393910133
-.889293600e-1,.4373581941,.6972962140
-.1110298950,.4490183279,.7557966735
-.1340981150,.4595022214,.8151190171
-.1581815050,.4687521598,.8755183003
.875607326e-1,.3061108402,.1387236599
.744123906e-1,.3286525213,.1998195035
.602170396e-1,.3499215436,.2596857756
.450303046e-1,.3699855217,.3185975179
.288933306e-1,.3888944671,.3767953195
.118352626e-1,.4066838069,.4344958617
-.61251270e-2,.4233763576,.4919000761
-.249784580e-1,.4389835229,.5491998470
-.447242610e-1,.4535058740,.6065839308
-.653709540e-1,.4669331766,.6642436072
-.869362730e-1,.4792438740,.7223785440
-.1094481940,.4904039588,.7812033913
-.1329464860,.5003650931,.8409557465
.1049568206,.3294636761,.1014168784
.924694416e-1,.3528087687,.1634001914
.788933336e-1,.3748304915,.2239669951
.642944746e-1,.3956090426,.2834195130
.487223146e-1,.4152045300,.3420174973
.322129416e-1,.4336608177,.3999908363
.147911836e-1,.4510080854,.4575490144
-.35280430e-2,.4672644643,.5148885849
-.227389630e-1,.4824369746,.5721994923
-.428446510e-1,.4965218792,.6296708242
-.638571850e-1,.5095044961,.6874964929
-.857982660e-1,.5213584470,.7458813227
-.1087003760,.5320442515,.8050481139
.1208927706,.3523501992,.6155603892e-1
.1091330786,.3765798066,.1246109019
.962326566e-1,.3994228384,.1860298036
.822701836e-1,.4209749282,.2461503168
.673050476e-1,.4413082633,.3052571586
.513814336e-1,.4604765517,.3635977232
.345310506e-1,.4785183355,.4213933501
.167749236e-1,.4954591719,.4788479278
-.18754874e-2,.5113129911,.5361548594
-.214177009e-1,.5260828082,.5935031148
-.418580922e-1,.5397608744,.6510828982
-.632122135e-1,.5523282860,.7090914237
-.855055985e-1,.5637540057,.7677392943
.1352332006,.3746546268,.1885302885e-1
.1242814066,.3998662491,.8320771904e-1
.1121235116,.4236118346,.1456642190
.988541386e-1,.4460063994,.2066067040
.845448366e-1,.4671369130,.2663526725
.692494456e-1,.4870688165,.3251726586
.530076536e-1,.5058503542,.3833040925
.358473736e-1,.5235154528,.4409615115
.177862806e-1,.5400855984,.4983445162
-.11672600e-2,.5555709583,.5556443516
-.210137706e-1,.5699708966,.6130497758
-.417626888e-1,.5832739429,.6707527104
-.634328448e-1,.5954572093,.7289541615
.1478117796,.3962334736,-.2706238688e-1
.1377664756,.4225469515,.3888050139e-1
.1264318666,.4472932564,.1026052402
.1139231496,.4706124106,.1645586023
.1003271296,.4926099311,.2251016678
.857094376e-1,.5133655901,.2845357139
.701192426e-1,.5329391559,.3431198185
.535924046e-1,.5513742139,.4010834071
.361535516e-1,.5687007034,.4586356540
.178174236e-1,.5849365377,.5159729295
-.14103748e-2,.6000885325,.5732851116
-.215330841e-1,.6141527467,.6307613246
-.425629587e-1,.6271142860,.6885956301
.1584205396,.4169043890,-.7667403838e-1
.1494060456,.4444708333,-.8770268605e-2
.1389945356,.4703391802,.5651507563e-1
.1273286086,.4946827625,.1197149738
.1145147816,.5176310516,.1812495122
.1006334796,.5392818040,.2414612620
.857454356e-1,.5597088468,.3006384705
.698959196e-1,.5789672022,.3590310104
.531175466e-1,.5970965150,.4168619353
.354321316e-1,.6141233042,.4743362350
.168518626e-1,.6300623817,.5316479109
-.26200839e-2,.6449176085,.5889860738
-.229893822e-1,.6586820900,.6465406278
.1667935446,.4364286938,-.1306287536
.1589714186,.4654444806,-.6026865387e-1
.1496096326,.4925887861,.6956867658e-2
.1388887066,.5180810347,.7170337976e-1
.1269414916,.5420827052,.1344728952
.1138675636,.5647148362,.1956644484
.997421876e-1,.5860689144,.2556059369
.846221036e-1,.6062139074,.3145752380
.685493596e-1,.6252009260,.3728149369
.515538666e-1,.6430663262,.4305430761
.336550696e-1,.6598337447,.4879614421
.148629746e-1,.6755153445,.5452623458
-.48213409e-2,.6901124338,.6026345776
.1725806146,.4544826492,-.1898179198
.1661687046,.4852125823,-.1163188706
.1580223706,.5138342892,-.4664553466e-1
.1483771206,.5406340415,.2003950491e-1
.1374024456,.5658178513,.8435584539e-1
.1252236346,.5895380121,.1467817097
.1119348276,.6119089555,.2076998403
.976072136e-1,.6330172093,.2674267265
.822943466e-1,.6529278709,.3262321962
.660356846e-1,.6716889021,.3843531805
.488589416e-1,.6893339905,.4420038820
.307816186e-1,.7058844083,.4993836913
.118119186e-1,.7213501245,.5566837600
.1753022706,.4706070102,-.2555212899
.1706084536,.5034253152,-.1778982076
.1639029616,.5337983915,-.1050720828
.1555059776,.5621154329,-.3592019984e-1
.1456405706,.5886475776,.3035338424e-1
.1344680776,.6135909369,.9434185533e-1
.1221081526,.6370909522,.1565058250
.1086508546,.6592570896,.2172159203
.941642806e-1,.6801721263,.2767801358
.786995606e-1,.6998982071,.3354622926
.622941606e-1,.7184808766,.3934951230
.449740976e-1,.7359517568,.4510900029
.267553546e-1,.7523302754,.5084446089
.1742654936,.4841105740,-.3296833169
.1717529726,.5195802825,-.2464229177
.1668103576,.5520961675,-.1694156440
.1598990116,.5822190252,-.9705542858e-1
.1513255226,.6103215210,-.2826567691e-1
.1413045576,.6366645808,.3772165533e-1
.1299919056,.6614375750,.1014818500
.1175033606,.6847812480,.1634635205
.1039261626,.7068016470,.2240290231
.893262746e-1,.7275789463,.2834805287
.737531286e-1,.7471732352,.3420777524
.572428006e-1,.7656283623,.4000505569
.398201076e-1,.7829744943,.4576084094
.1683859416,.4938624655,-.4155121380
.1688163286,.5329093305,-.3240729361
.1661283416,.5681657555,-.2412807331
.1610467506,.6005127129,-.1646148139
.1540199986,.6304952935,-.9251361725e-1
.1453472876,.6584771807,-.2392557009e-1
.1352386846,.6847137182,.4190215354e-1
.1238469326,.7093905637,.1055350061
.1112856886,.7326458724,.1674150133
.976406366e-1,.7545837921,.2278999625
.829765436e-1,.7752830504,.2872888165
.673419006e-1,.7948025878,.3458390227
.507720006e-1,.8131853043,.4037788697
.1557373786,.4977566535,-.5190364719
.1605484406,.5421283048,-.4145139629
.1609414846,.5811297776,-.3231820441
.1582258056,.6163525420,-.2404635115
.1531222336,.6486727830,-.1638514037
.1460772036,.6786331435,-.9179109166e-1
.1373887586,.7065959078,-.2323489920e-1
.1272662466,.7328155378,.4256759991e-1
.1158619316,.7574771120,.1061803263
.1032891346,.7807183768,.1680442665
.896332916e-1,.8026431809,.2285164918
.749589846e-1,.8233300238,.2878954594
.593145536e-1,.8428376643,.3464382611
.980374696e-1,.2782051200,.2286504930
.833609436e-1,.2988892647,.2880273150
.677143856e-1,.3183943195,.3465685091
.511329396e-1,.3367630007,.4045020620
.336406176e-1,.3540244970,.4620361951
.152516006e-1,.3701960456,.5193667286
-.40290300e-2,.3852838199,.5766833360
-.242050440e-1,.3992832413,.6341752756
-.452892430e-1,.4121787485,.6920370852
-.673041210e-1,.4239429993,.7504747241
-.902830680e-1,.4345354065,.8097127332
-.1142722830,.4438998145,.8700031485
-.1393336640,.4519609871,.9316372781
.1179438546,.3025141545,.1954947241
