-.624309868e-1,.4128449906,-.4104508155
-.621891140e-1,.4516627105,-.3195523515
-.650171437e-1,.4867489118,-.2371320812
-.702100149e-1,.5189606060,-.1607381117
-.773293880e-1,.5488306039,-.8884364985e-1
-.860818722e-1,.5767155260,-.2041677865e-1
-.962610312e-1,.6028663000,.4528331203e-1
-.1077165408,.6274656480,.1088143131
-.1203364370,.6506496620,.1706130196
-.1340362825,.6725209800,.2310335995
-.1487522573,.6931571750,.2903724671
-.1644366298,.7126162660,.3488852691
-.745132478e-1,.3704550390,-.6123600012
-.646203373e-1,.4210037651,-.4917164385
-.610732992e-1,.4638389728,-.3910611318
-.615349217e-1,.5018015830,-.3021615417
-.648909096e-1,.5362460418,-.2211291970
-.705061631e-1,.5679443225,-.1457560486
-.779788208e-1,.5973848965,-.7464059410e-1
-.870367248e-1,.6248985765,-.6822552668e-2
-.974868211e-1,.6507200205,.5839474965e-1
-.1091877593,.6750210455,.1215403101
-.1220339070,.6979300485,.1830315196
-.1359454957,.7195439885,.2432090710
-.1508622953,.7399360775,.3023598823
-.932901505e-1,.3602322243,-.7456850768
-.731478074e-1,.4232393170,-.5906883341
-.645557035e-1,.4722068890,-.4742469933
-.617732069e-1,.5141127827,-.3758970820
-.627653489e-1,.5514305376,-.2884841308
-.665250231e-1,.5853843082,-.2084972800
-.724662629e-1,.6166863472,-.1338992940
-.802134327e-1,.6457932462,-.6337847983e-1
-.895098921e-1,.6730169572,.3973284702e-2
-.1001724923,.6985801002,.6882017320e-1
-.1120665906,.7226463362,.1316698761
-.1250913275,.7453382602,.1929252939
-.1391704826,.7667485202,.2529170208
-.1601204025+.2816391062e-1*I,.2935281883+.3423372722e-1*I,-1.047197551+.1035834810*I
-.927023430e-1,.4139997427,-.7235380249
-.745869736e-1,.4745430124,-.5754736512
-.668610008e-1,.5224577884,-.4618037536
-.646038136e-1,.5637251584,-.3650219878
-.659663818e-1,.6005926532,-.2786359313
-.700107279e-1,.6342004002,-.1993778170
-.761834095e-1,.6652211182,-.1253232555
-.841264463e-1,.6940899382,-.5522086990e-1
-.935937728e-1,.7211059562,.1180201923e-1
-.1044090508,.7464835172,.7638733022e-1
-.1164422857,.7703806292,.1390280686
-.1295959477,.7929158432,.2001171107
-.1476538825+.9428495686e-1*I,.3253217015+.1146050184*I,-1.047197551+.3407563214*I
-.1665546220+.1400123133e-1*I,.3408712422+.1701874219e-1*I,-1.047197551+.5156412944e-1*I
-.959343714e-1,.4652351156,-.7110671266
-.788950575e-1,.5244704205,-.5666596247
-.716541928e-1,.5717955394,-.4545320072
-.696969302e-1,.6126983460,-.3586394856
-.712731453e-1,.6493061490,-.2728413919
-.754827214e-1,.6827130560,-.1940029286
-.817903251e-1,.7135697740,-.1202624543
-.898479151e-1,.7422993520,-.5040249385e-1
-.994154248e-1,.7691935960,.1642957988e-1
-.1103204030,.7944621250,.8086300794e-1
-.1224355214,.8182597060,.1433824101
-.1366311273+.1338195440*I,.3577001883+.1626600021*I,-1.047197551+.4749894558*I
-.1555318665+.9348075290e-1*I,.3732497288+.1136274943*I,-1.047197552+.3379560606*I
-.1744326055+.7294420286e-2*I,.3887992692+.8866495760e-2*I,-1.047197552+.2687276841e-1*I
-.1030634290,.5140734749,-.7081426668
-.862700112e-1,.5730098891,-.5645683782
-.791425172e-1,.6201972035,-.4528001219
-.772559394e-1,.6610140925,-.3571165114
-.788827339e-1,.6975604155,-.2714571406
-.831315382e-1,.7309196405,-.1927179441
-.894712375e-1,.7617373445,-.1190518891
-.975561177e-1,.7904337515,-.4924942637e-1
-.1071475211,.8172989525,.1753735570e-1
-.1180739130,.8425414515,.8193472429e-1
-.1272328206+.1673027782*I,.3907368574+.2033594606*I,-1.047197551+.5828542386*I
-.1461335599+.1353389551*I,.4062863980+.1645068730*I,-1.047197552+.4800049391*I
-.1650342987+.9553335920e-1*I,.4218359381+.1161224733*I,-1.047197552+.3450981947*I
-.1839350376+.2049850960e-1*I,.4373854785+.2491629785e-1*I,-1.047197551+.7545432900e-1*I
-.1145030612,.5603049836,-.7157010756
-.9706916014e-1,.6200199164,-.5699545960
-.8964833394e-1,.6675637802,-.4572557001
-.8757932904e-1,.7086024132,-.3610324011
-.8907576334e-1,.7453071912,-.2750151226
-.9322355004e-1,.7787892042,-.1960200161
-.9948064734e-1,.8097073132,-.1221622036
-.1074953242,.8384890522,-.5221162822e-1
-.1170252825,.8654289422,.1469179452e-1
-.742151445e-1,.2865508408,-.9079030503e-1
-.829253585e-1,.3144871425,-.2227813954e-1
-.930671215e-1,.3406833733,.4348950225e-1
-.1044888295,.3653238066,.1070744122
-.1170776255,.3885456255,.1689161482
-.1307484115,.4104522657,.2293707906
-.1454368655,.4311219115,.2887361016
-.1610948565,.4506130701,.3472686788
-.1776873835,.4689682828,.4051962201
-.1951905585,.4862165864,.4627267580
-.2135903145,.5023750810,.5200560029
-.2328816785,.5174498105,.5773735900
-.2530685245,.5314360655,.6348688081
-.588270749e-1,.3064674070,-.1317819944
-.666228081e-1,.3355152766,-.6136538504e-1
-.759615821e-1,.3626875539,.5904537048e-2
-.866619555e-1,.3882047827,.7068635275e-1
-.985904490e-1,.4122292102,.1334840737
-.1116470350,.4348824216,.1946980899
-.1257561130,.4562563099,.2546572416
-.1408606810,.4764201630,.3136400807
-.1569184790,.4954253477,.3718896619
-.1738994190,.5133084382,.4296243505
-.1917838970,.5300932622,.4870461345
-.2105617610,.5457921592,.5443474287
-.2302317940,.5604066092,.6017170350
-.452027751e-1,.3255164251,-.1762972536
-.519473121e-1,.3558420431,-.1035598758
-.603777249e-1,.3841184482,-.3447690880e-1
-.702725618e-1,.4106148216,.3174223683e-1
-.814715465e-1,.4355259796,.9568730296e-1
-.938557637e-1,.4589964665,.1578166054
-.1073356921,.4811350977,.2184991913
-.1218436395,.5020241535,.2780419388
-.1373288009,.5217253880,.3367078846
-.1537539721,.5402840250,.3947292124
-.1710933640,.5577314110,.4523169306
-.1893311970,.5740867240,.5096684958
-.2084608820,.5893579780,.5669742132
-.335580733e-1,.3434775585,-.2249081644
-.390745502e-1,.3752959049,-.1492979293
-.464643458e-1,.4048371984,-.7800113486e-1
-.554504531e-1,.4324381481,-.1004115822e-1
-.658367441e-1,.4583371495,.5528878635e-1
-.774797985e-1,.4827085327,.1185242969
-.902725187e-1,.5056824772,.1800872390
-.1041340507,.5273572630,.2403214197
-.1190033280,.5478071150,.2995159489
-.1348348167,.5670873840,.3579213212
-.1515956807,.5852379800,.4157610100
-.1692639087,.6022856590,.4732402803
-.1878271391,.6182454480,.5305532853
-.241786709e-1,.3600543312,-.2784040043
-.282296626e-1,.3936540013,-.1991628130
-.344077615e-1,.4246681335,-.1251209035
-.423553931e-1,.4535313683,-.5502827568e-1
-.518267345e-1,.4805425069,.1198693880e-1
-.626456051e-1,.5059157005,.7656614116e-1
-.746821173e-1,.5298088291,.1392020002
-.878388184e-1,.5523403490,.2002871587
-.1020420347,.5735998100,.2601450397
-.1172362646,.5936546780,.3190503700
-.1333804651,.6125548390,.3772435158
-.1504455755,.6303356190,.4349410092
-.1684129012,.6470197400,.4923436866
-.174580329e-1,.3748295560,-.3379186045
-.197095836e-1,.4106164772,-.2539574649
-.244464307e-1,.4433824761,-.1764413193
-.311874579e-1,.4737123601,-.1036959715
-.396148651e-1,.5019924194,-.3460681302e-1
-.495070545e-1,.5284920097,.3161722213e-1
-.607036563e-1,.5534060650,.9556618830e-1
-.730856875e-1,.5768792090,.1576986062
-.865635797e-1,.5990203150,.2183836631
-.1010696034,.6199117090,.2779283384
-.1165529251,.6396151800,.3365957399
-.1329763161,.6581759810,.3946180988
-.1503139683,.6756254810,.4522064584
-.139691385e-1,.3871800478,-.4051758876
-.139215478e-1,.4257616160,-.3148324779
-.168945402e-1,.4606716120,-.2327955603
-.222029369e-1,.4927428824,-.1566826029
-.294186657e-1,.5224957583,-.8500211707e-1
-.382542725e-1,.5502796432,-.1674224488e-1
-.485070429e-1,.5763409422,.4882552240e-1
-.600291393e-1,.6008593522,.1122509064
-.727103454e-1,.6239688442,.1739653250
-.864675094e-1,.6457704902,.2343192188
-.1012377959,.6663406682,.2936063747
-.1169742583,.6857364422,.3520805861
-.1336428818,.7039991592,.4099676074
-.146180230e-1,.3960925466,-.4830241198
-.114554602e-1,.4384604183,-.3835314874
-.121825953e-1,.4761002920,-.2953782279
-.157400253e-1,.5102998935,-.2148693379
-.215176226e-1,.5418008437,-.1398836319
-.291267885e-1,.5710754898,-.6906506158e-1
-.383031858e-1,.5984451378,-.1479654038e-2
-.488587394e-1,.6241383978,.6355291070e-1
-.606554625e-1,.6483229938,.1265509277
-.735901127e-1,.6711244208,.1879245184
-.875846944e-1,.6926374818,.2480093126
-.1025803468,.7129337228,.3070886539
-.1185333106,.7320663368,.3654089729
-.210392668e-1,.3996863970,-.5768334355
-.132373871e-1,.4476934386,-.4629215504
-.109336418e-1,.4890174024,-.3660013383
-.122631847e-1,.5259250403,-.2795241112
-.162820576e-1,.5595637490,-.2002010829
-.224339762e-1,.5906097042,-.1260980088
-.303594094e-1,.6194999222,-.5595822054e-1
-.398113571e-1,.6465346342,.1109409407e-1
-.506128772e-1,.6719289172,.7570281801e-1
-.626335620e-1,.6958412842,.1383622617
-.757755856e-1,.7183906452,.1994661899
-.899649925e-1,.7396668922,.2593388113
-.1051460639,.7597377542,.3182554069
-.370035749e-1,.3935072334,-.6995403324
-.209197742e-1,.4515810956,-.5583652408
-.141247600e-1,.4983642756,-.4476484611
-.124467741e-1,.5389276167,-.3525798568
-.142233314e-1,.5752919003,-.2673301722
-.185885389e-1,.6085096352,-.1888847037
-.250236197e-1,.6392114022,-.1154391232
-.331896909e-1,.6678091192,-.4580714948e-1
-.428522428e-1,.6945878382,.2084528356e-1
-.538424424e-1,.7197527782,.8513565474e-1
-.660354496e-1,.7434556842,.1475407744
-.793374481e-1,.7658105922,.2084424142
-.936774959e-1,.7869037332,.2681563854
-.809124108e-1,.3553459378,-.9170974744
-.382393057e-1,.4457395657,-.6825717018
-.234978262e-1,.5021818144,-.5459121443
-.173535917e-1,.5481739589,-.4372427577
-.160894897e-1,.5882342170,-.3433876676
-.181654358e-1,.6242345882,-.2589521002
-.227644545e-1,.6571681212,-.1810928208
-.293917645e-1,.6876362292,-.1080884562
-.377218747e-1,.7160345552,-.3879827307e-1
-.475284582e-1,.7426382012,.2758452554e-1
-.586480337e-1,.7676458832,.9166005540e-1
-.709594611e-1,.7912048462,.1538935585
-.843716037e-1,.8134258732,.2146588558
-.1041207231+.8306725496e-1*I,.3445278664+.1009697050*I,-1.047197551+.3014707106*I
-.819712019e-1,.4099747184,-.8953668152
-.429937427e-1,.4958762222,-.6741039045
-.288950058e-1,.5515372047,-.5395952670
-.230726551e-1,.5971380948,-.4319330997
-.220160086e-1,.6369461875,-.3386827999
-.242431330e-1,.6727627985,-.2546558073
-.289607788e-1,.7055521385,-.1770919648
-.356859452e-1,.7359013015,-.1043105809
-.440997704e-1,.7641978695,-.3519343849e-1
-.539800024e-1,.7907119945,.3105270624e-1
-.651658387e-1,.8156391335,.9501929867e-1
-.775379984e-1,.8391242785,.1571657961
-.9361702415e-1+.1264557740*I,.3771166608+.1537092107*I,-1.047197551+.4505251402*I
-.1125177632+.8319284730e-1*I,.3926662011+.1011223646*I,-1.047197551+.3019131616*I
-.9060935285e-1,.4578199782,-.8962654566
-.5148480025e-1,.5439002783,-.6744758701
-.3735819465e-1,.5995951351,-.5398741307
-.3152174815e-1,.6452131595,-.4321679326
-.3045597875e-1,.6850323395,-.3388910889
-.3267643945e-1,.7208570515,-.2548461226
-.3738884795e-1,.7536527565,-.1772692663
-.4410969005e-1,.7840071755,-.1044780518
-.5251981265e-1,.8123082445,-.3535327543e-1
-.6239678515e-1,.8388263315,.3089889994e-1
-.7357968735e-1,.8637570375,.9487030081e-1
-.40239526e-1,.2879696286,-.2807840431e-1
-.50264281e-1,.3143080828,.3790200280e-1
-.61580352e-1,.3390769212,.1016566712
-.74072038e-1,.3624167782,.1636339321
-.87652165e-1,.3844336158,.2241959374
-.102254824,.4052075470,.2836447213
-.117830624,.4247986102,.3422398982
-.134343521,.4432506144,.4002112648
-.151768728,.4605936898,.4577682406
-.170091365,.4768459239,.5151073431
-.189305690,.4920142955,.5724185016
-.209414811,.5060950265,.6298908129
-.230430843,.5190733918,.6877182181
-.232996561e-1,.3089410556,-.6599911181e-1
-.325408841e-1,.3362319014,.1459874765e-2
-.431542160e-1,.3618549304,.6639198825e-1
-.550034788e-1,.3859756644,.1293097704
-.679867220e-1,.4087180250,.1906194231
-.820269110e-1,.4301756493,.2506538460
-.970659300e-1,.4504191785,.3096944559
-.1130606190,.4695010739,.3679863234
-.1299801310,.4874588307,.4257491928
-.1478041950,.5043170880,.4831859298
-.1665220460,.5200889322,.5404893986
-.1861318710,.5347765662,.5978484666
-.2066407230,.5483714182,.6554536618
-.79396309e-2,.3292448078,-.1069418632
-.162951912e-1,.3576121982,-.3770438534e-1
-.261241533e-1,.3841886419,.2863679985e-1
-.372638559e-1,.4091718586,.9267916112e-1
-.495937252e-1,.4327084070,.1548861729
-.630230351e-1,.4549085653,.2156304351
-.774831805e-1,.4758557257,.2752213274
-.929226347e-1,.4956125187,.3339236499
-.1093036013,.5142248867,.3919708181
-.1265997835,.5317247942,.4495746669
-.1447949475,.5481319742,.5069331468
-.1638820745,.5634549552,.5642367690
-.1838630135,.5776914952,.6216744049
.56771468e-2,.3487190584,-.1513132737
-.16653201e-2,.3783178808,-.7991252143e-1
-.106104629e-1,.4059686231,-.1187123454e-1
-.209603811e-1,.4319118361,.5352321426e-1
-.325704620e-1,.4563233000,.1168102313
-.453327648e-1,.4793342171,.1784142558
-.591658141e-1,.5010436232,.2386808856
-.740080638e-1,.5215263290,.2979004971
-.898135964e-1,.5408381470,.3563244718
-.1065492554,.5590193810,.4141769001
-.1241927503,.5760971230,.4716634458
-.1427314646,.5920867110,.5289784823
-.1621618095,.6069925070,.5863112219
.173420477e-1,.3671550082,-.1996545284
.111763421e-1,.3981842062,-.1255836714
.32392206e-2,.4270602158,-.5546872371e-1
-.62229381e-2,.4540825167,.1156405147e-1
-.170335926e-1,.4794656969,.7615722712e-1
-.290626095e-1,.5033679361,.1388042490
-.422123596e-1,.5259079047,.1998982910
-.564090357e-1,.5471753162,.2597631485
-.715970334e-1,.5672377592,.3186738093
-.877352249e-1,.5861452242,.3768708251
-.1047944789,.6039331222,.4345708530
-.1227560378,.6206242522,.4919748075
-.1416105310,.6362300062,.5492745662
.267814248e-1,.3842740799,-.2527059317
.220102201e-1,.4169983178,-.1752750356
.152408006e-1,.4472936897,-.1025941262
.67890708e-2,.4755441846,-.3355502069e-1
-.31245395e-2,.5020177373,.3262946345e-1
-.143404301e-1,.5269083465,.9654689464e-1
-.267401534e-1,.5503599858,.1586541268
-.402345306e-1,.5724810538,.2193192004
-.547561287e-1,.5933535168,.2788482881
-.702543473e-1,.6130388808,.3375039274
-.866921504e-1,.6315821628,.3955179524
-.1040438942,.6490145348,.4531011392
-.1222939286,.6653550188,.5104508075
.336229534e-1,.3996886071,-.3115189409
.305489448e-1,.4344758172,-.2297481515
.251598440e-1,.4664489901,-.1538307026
.178766815e-1,.4961198983,-.8229929931e-1
.89828224e-2,.5238329770,-.1415588327e-1
-.13215919e-2,.5498315015,.5131956194e-1
-.128904453e-1,.5742930775,.1146712450
-.256147363e-1,.5973501985,.1763268579
-.394122066e-1,.6191028525,.2366342558
-.542207082e-1,.6396265795,.2958854051
-.699938419e-1,.6589777785,.3543328120
-.866980498e-1,.6771972415,.4122013406
-.1043106926,.6943124855,.4696971632
.373334946e-1,.4128284309,-.3776668893
.364024161e-1,.4502204095,-.2900837664
.326894483e-1,.4842309510,-.2099766736
.267860580e-1,.5155789977,-.1352892633
.190708439e-1,.5447247402,-.6469971536e-1
.98022091e-2,.5719822725,.2706010050e-2
-.8355652e-3,.5975755915,.6759579401e-1
-.127070670e-1,.6216692935,.1304797613
-.257108888e-1,.6443866405,.1917624752
-.397704003e-1,.6658207775,.2517756868
-.548277998e-1,.6860419655,.3108000036
-.708401803e-1,.7051023565,.3690799261
-.877769079e-1,.7230391875,.4268348095
.370907720e-1,.4227877288,-.4536881664
.390135591e-1,.4636486310,-.3578975694
.374126852e-1,.5002264604,-.2721671310
.331839893e-1,.5336101272,-.1933770665
.268607458e-1,.5644478342,-.1196728709
.187898590e-1,.5931612502,-.4984093724e-1
.92107090e-2,.6200413452,.1696906133e-1
-.17047007e-2,.6452971942,.8138491382e-1
-.138293471e-1,.6690831932,.1438902749
-.270678401e-1,.6915152932,.2048716146
-.413480522e-1,.7126811652,.2646480363
-.566156918e-1,.7326468022,.3234912126
-.728306995e-1,.7514608962,.3816393684
.314705493e-1,.4279485287,-.5441849474
.375262333e-1,.4738330396,-.4357930125
.387334448e-1,.5138241462,-.3421040085
.366161157e-1,.5497742158,-.2577804529
.319846613e-1,.5826683222,-.1800020864
.253306165e-1,.6131039342,-.1070587501
.169776493e-1,.6414744772,-.3781590612e-1
.71509671e-2,.6680536932,.2852951697e-1
-.39866841e-2,.6930394032,.9257525521e-1
-.163146736e-1,.7165782352,.1547849636
-.297422339e-1,.7387805212,.2155313675
-.442007266e-1,.7597296892,.2751239313
-.596386022e-1,.7794884012,.3338275193
.174411907e-1,.4247637298,-.6594090296
.304648923e-1,.4791179873,-.5284804460
.357337707e-1,.5240461209,-.4225413796
.364294546e-1,.5634154575,-.3303376882
.339375210e-1,.5989101885,-.2470222023
.290111788e-1,.6314458535,-.1699748344
.221133260e-1,.6615851125,-.9758423257e-1
.135514267e-1,.6897016945,-.2877083579e-1
.35406876e-2,.7160571855,.3723520184e-1
-.77627399e-2,.7408413915,.1010103160
-.202428138e-1,.7641953635,.1630039016
-.338121072e-1,.7862253695,.2235788468
-.484045210e-1,.8070117555,.2830377050
-.157165012e-1,.4003737143,-.8372691716
.147124756e-1,.4758843894,-.6464103971
.268257163e-1,.5291319666,-.5184955183
.316108905e-1,.5734721490,-.4140528709
.319867120e-1,.6124526872,-.3227704026
.292582531e-1,.6476599172,-.2400858491
.241445338e-1,.6799678232,-.1634985712
.170910612e-1,.7099179232,-.9145712198e-1
.83953486e-2,.7378718532,-.2291563652e-1
-.17335888e-2,.7640836722,.4287522116e-1
-.131437096e-1,.7887381902,.1064786578
-.257218459e-1,.8119729652,.1683351815
-.393826759e-1,.8338917072,.2288015344
-.607537567e-1+.7063116324e-1*I,.3638013681+.8585341742e-1*I,-1.047197551+.2573864184*I
-.205682056e-1,.4511713300,-.8277390975
.86248202e-2,.5251796842,-.6412378209
.203858278e-1,.5779991164,-.5144840982
.249801522e-1,.6221073180,-.4106293546
.252286397e-1,.6609330800,-.3197119496
.224055343e-1,.6960252660,-.2372786292
.172165809e-1,.7282417230,-.1608751059
.101004724e-1,.7581156880,-.8897337555e-1
.13508021e-2,.7860040300,-.2054083443e-1
-.88258670e-2,.8121578310,.4516374731e-1
-.202791252e-1,.8367599160,.1086983330
-.328969496e-1,.8599464490,.1704998997
-.7910006e-2,.2879309391,.3148890504e-1
-.19104161e-1,.3128479679,.9544187555e-1
-.31483949e-1,.3363238392,.1575774918
-.44959750e-1,.3584674863,.2182650858
-.59463800e-1,.3793612804,.2778117416
-.74945233e-1,.3990670472,.3364806376
-.91366797e-1,.4176300681,.3945040569
-.108702663,.4350817394,.4520930749
-.126937014,.4514412871,.5094451889
-.146063224,.4667167633,.5667507192
-.166083529,.4809054520,.6241985925
-.187009132,.4939937349,.6819820118
-.208860780,.5059563937,.7403044825
.104148025e-1,.3097676089,-.3841423945e-2
-.942053e-4,.3355174461,.6127245762e-1
-.118486338e-1,.3597534524,.1243354224
-.247441915e-1,.3826023965,.1857607809
-.387021025e-1,.4041600314,.2458863860
-.536629035e-1,.4244986354,.3049971499
-.695823495e-1,.4436719904,.3633406060
-.864286805e-1,.4617186997,.4211381878
-.1041808265,.4786643749,.4785938443
-.1228272875,.4945229954,.5359010125
-.1423655425,.5092976244,.5932486683
-.1628019265,.5229805602,.6508269985
-.1841519515,.5355529522,.7088331732
.273011120e-1,.3310878484,-.4182877397e-1
.175566681e-1,.3577670271,.2466996898e-1
.64929437e-2,.3828425955,.8883789654e-1
-.57673369e-2,.4064637300,.1511452065
-.191318860e-1,.4287426070,.2119691230
-.335309163e-1,.4497640534,.2716222683
-.489119717e-1,.4695918307,.3303717377
-.652364932e-1,.4882728089,.3884525501
-.824775325e-1,.5058397438,.4460776165
-.1006182715,.5223130778,.5034455405
-.1196511465,.5377020048,.5607471143
-.1395774665,.5520049328,.6181711495
-.1604074795,.5652094078,.6759101273
.426204134e-1,.3517674534,-.8277301723e-1
.337367504e-1,.3794929258,-.1460925167e-1
.234413790e-1,.4055024417,.5088232819e-1
.118807154e-1,.4299739724,.1142468918
-.8360274e-3,.4530402692,.1759127829
-.146264346e-1,.4748015076,.2362283039
-.294282383e-1,.4953333765,.2954857423
-.451949434e-1,.5146923898,.3539378258
-.618929120e-1,.5329194360,.4118095757
-.794994358e-1,.5500421190,.4693072651
-.980015163e-1,.5660762360,.5266256035
-.1173952006,.5810265920,.5839539018
-.1376853807,.5948872430,.6414817675
.562127103e-1,.3716512879,-.1270636605
.483092432e-1,.4005682059,-.5687714039e-1
.388764800e-1,.4276262367,.1021192775e-1
.280921169e-1,.4530413754,.7484989550e-1
.160870799e-1,.4769727625,.1375327002
.29595650e-2,.4995397582,.1986552220
-.112161950e-1,.5208325939,.2585424503
-.263842638e-1,.5409192605,.3174702145
-.425032450e-1,.5598500765,.3756796584
-.595437790e-1,.5776607295,.4333878422
-.774869065e-1,.5943742635,.4907959326
-.963230703e-1,.6100022955,.5480959315
-.1160516314,.6245456045,.6054766025
.678750138e-1,.3905403390,-.1752161797
.611041623e-1,.4208339713,-.1025385154
.526512061e-1,.4490829750,-.3350193263e-1
.427365150e-1,.4755552145,.3268055917e-1
.315196513e-1,.5004446408,.9659640084e-1
.191190352e-1,.5238951945,.1587023632
.56238258e-2,.5460152520,.2193664301
-.88985581e-2,.5668867590,.2788947325
-.243975286e-1,.5865712090,.3375497789
-.408360595e-1,.6051136070,.3955633852
-.581885145e-1,.6225451140,.4531463123
-.764392515e-1,.6388847440,.5104958716
-.955818105e-1,.6541403480,.5678023073
.773431787e-1,.4081709964,-.2279305694
.719061288e-1,.4400858873,-.1521289617
.645828553e-1,.4697080392,-.8068597330e-1
.556543151e-1,.4973789625,-.1261166357e-1
.453191324e-1,.5233400876,.5280897952e-1
.337224051e-1,.5477677825,.1161169080
.209724166e-1,.5707936685,.1777376157
.71508954e-2,.5925170865,.2380174267
-.76804177e-2,.6130130865,.2972472315
-.234754497e-1,.6323376685,.3556787756
-.402009139e-1,.6505312935,.4135363977
-.578344071e-1,.6676211935,.4710259258
-.763632095e-1,.6836228295,.5283418249
.842615188e-1,.4241798765,-.2861913669
.804351298e-1,.4580525542,-.2063759420
.744397658e-1,.4892888044,-.1319055608
.666468632e-1,.5183401150,-.6148288476e-1
.573105562e-1,.5455153905,.5791800372e-2
.466123859e-1,.5710352970,.7057740461e-1
.346858992e-1,.5950621640,.1333781523
.216311717e-1,.6177176340,.1945945787
.75238399e-2,.6390936450,.2545556271
-.75790657e-2,.6592595180,.3135399194
-.236352632e-1,.6782666490,.3717905625
-.406146438e-1,.6961516350,.4295259546
-.584975884e-1,.7129383220,.4869481083
.881279360e-1,.4380394651,-.3514519443
.863143515e-1,.4743587420,-.2663032999
.819203082e-1,.5075414254,-.1879304030
.754615657e-1,.5382144316,-.1145393578
.672753325e-1,.5667876420,-.4494958692e-1
.575950977e-1,.5935448670,.2166957382e-1
.465890295e-1,.6186905180,.8593344230e-1
.343815085e-1,.6423757830,.1483173899
.210660204e-1,.6647142940,.2092022018
.67132559e-2,.6857919770,.2689029968
-.86236184e-2,.7056734580,.3276886345
-.249054616e-1,.7244063120,.3857953671
-.421048299e-1,.7420238990,.4434369378
.881840168e-1,.4489276027,-.4260110552
.890121769e-1,.4884579660,-.3334241027
.866176905e-1,.5240711464,-.2498474120
.817682809e-1,.5567003241,-.1726101457
.749341642e-1,.5869170555,-.1000757168
.664269675e-1,.6151001295,-.3115045553e-1
.564644771e-1,.6415142675,.3494404391e-1
.452045490e-1,.6663513485,.9878971436e-1
.327644157e-1,.6897538685,.1608396404
.192323708e-1,.7118291515,.2214592578
.46751749e-2,.7326583445,.2809529098
-.108571030e-1,.7523023085,.3395818396
-.273278660e-1,.7708055275,.3975769829
.831590360e-1,.4554204906,-.5139060338
.877260188e-1,.4994954586,-.4101353958
.879562123e-1,.5382989821,-.3192703634
.851194859e-1,.5733746121,-.2368731397
.799196938e-1,.6055778942,-.1604960429
.727945542e-1,.6354408812,-.8861441979e-1
.640370991e-1,.6633197612,-.2019756197e-1
.538535401e-1,.6894651882,.4549459619e-1
.423940531e-1,.7140597002,.1090192663
.297704957e-1,.7372392662,.1708129203
.160672293e-1,.7591064252,.2312295008
.13480134e-2,.7797386802,.2905652656
-.143394662e-1,.7991939942,.3490757485
.705101892e-1,.4545749027,-.6236084424
.811115715e-1,.5059847896,-.5006575230
.850627795e-1,.5493112711,-.3987729729
.848774812e-1,.5876097578,-.3090918969
.817298719e-1,.6223075042,-.2275144886
.762818653e-1,.6542090772,-.1517393184
.689494205e-1,.6838200812,-.8031651667e-1
.600129473e-1,.7114813622,-.1225798998e-1
.496707249e-1,.7374339302,.5315013426e-1
.380676182e-1,.7618538712,.1164480688
.253117470e-1,.7848726062,.1780608036
.114847191e-1,.8065893312,.2383343152
-.33518181e-2,.8270789812,.2975592475
.427232349e-1,.4374396105,-.7813546428
.664765393e-1,.5048358893,-.6138846800
.764641023e-1,.5554996680,-.4929335844
.800656345e-1,.5984011137,-.3921129538
.796414357e-1,.6364092130,-.3031078062
.763137454e-1,.6708880670,-.2220016558
.707212447e-1,.7026140050,-.1465739856
.632676866e-1,.7320777950,-.7541680634e-1
.542263408e-1,.7596116010,-.7566096924e-2
.437909659e-1,.7854509400,.5767713608e-1
.321033876e-1,.8097682040,.1208434048
.192695746e-1,.8326922000,.1823511275
.53695457e-2,.8543201910,.2425417104
.22940948e-1,.2866311878,.8843348179e-1
.10688006e-1,.3102612426,.1507514210
-.2669716e-2,.3325484168,.2115837811
-.17062308e-1,.3535776903,.2712435318
-.32437213e-1,.3734129438,.3299980109
-.48755792e-1,.3921011454,.3880824083
-.65991028e-1,.4096751347,.4457097492
-.84126040e-1,.4261554287,.5030787064
-.103153210,.4415512908,.5603801058
-.123073788,.4558611990,.6178027519
-.143897964,.4690727689,.6755390839
-.165645379,.4811621245,.7337911429
-.188346167,.4920926389,.7927773744
.425215002e-1,.3091873620,.5533474835e-1
.308775881e-1,.3335577025,.1185689212
.18084077e-1,.3565306852,.1801307966
.4221804e-2,.3782045693,.2403641345
-.10648177e-1,.3986535673,.2995580133
-.26480342e-1,.4179330142,.3579629038
-.43241862e-1,.4360828127,.4158022626
-.60910734e-1,.4531297093,.4732813456
-.79474603e-1,.4690887218,.5305942990
-.98930128e-1,.4839639098,.5879302727
-.119282819,.4977485769,.6454791028
-.140547310,.5104249358,.7034370582
-.162748117,.5219631868,.7620131329
.607758818e-1,.3313459850,.1985295738e-1
.498048022e-1,.3565341663,.8417532045e-1
.376292781e-1,.3802583232,.1466059948
.243435267e-1,.4026329799,.2075279489
.100187912e-1,.4237447331,.2672578305
-.52913285e-2,.4436587342,.3260655777
-.215473380e-1,.4624229900,.3841882013
-.387214925e-1,.4800712248,.4418399547
-.567962625e-1,.4966247450,.4992202623
-.757634215e-1,.5120935505,.5565202905
-.956236285e-1,.5264768415,.6139288017
-.1163864575,.5397629785,.6716378110
-.1380708885,.5519288925,.7298485115
.776001956e-1,.3530083312,-.1823873167e-1
.673773698e-1,.3791060280,.4738276124e-1
.558823691e-1,.4036573732,.1108510294
.432261182e-1,.4267971984,.1725996700
.294922900e-1,.4486272101,.2329806331
.147441197e-1,.4692242706,.2922887708
-.9711272e-3,.4886458331,.3507786268
-.176191707e-1,.5069335644,.4086764748
-.351767446e-1,.5241157452,.4661894099
-.536303462e-1,.5402087902,.5235126069
-.729755389e-1,.5552180892,.5808355201
-.932167319e-1,.5691382842,.6383475960
-.1143674010,.5819529952,.6962439841
.928673822e-1,.3740543074,-.5923030722e-1
.834838370e-1,.4011721648,.7953305327e-2
.727434706e-1,.4266407808,.7266647865e-1
.607785407e-1,.4506209192,.1354093655
.476881997e-1,.4732331010,.1965797182
.335473956e-1,.4945684255,.2565045343
.184126212e-1,.5146955622,.3154610658
.23257248e-2,.5336653780,.3736914526
-.146835525e-1,.5515140230,.4314134345
-.325959141e-1,.5682649540,.4888286081
-.514014906e-1,.5839301660,.5461291859
-.710993399e-1,.5985108050,.6035039495
-.916973986e-1,.6119972240,.6611438982
.1064199936,.3943345384,-.1034969531
.979881910e-1,.4226092545,-.3441684687e-1
.880921307e-1,.4491041397,.3180003580e-1
.768920439e-1,.4740139585,.9574329970e-1
.645068165e-1,.4974832177,.1578711636
.510259466e-1,.5196207043,.2185526065
.365171101e-1,.5405086790,.2780944632
.210310976e-1,.5602088800,.3367597364
.46051038e-2,.5787665170,.3947805869
-.127350929e-1,.5962129240,.4523680090
-.309737208e-1,.6125672720,.5097194498
-.501041986e-1,.6278375610,.5670252102
-.701288025e-1,.6420210250,.6244742242
.1180593709,.4136583512,-.1515327571
.1107220666,.4432634489,-.8012064813e-1
.1017813892,.4709196199,-.1207048157e-1
.914354357e-1,.4968676518,.5333101046e-1
.798289474e-1,.5212834817,.1166236488
.670699578e-1,.5442984270,.1782321602
.532400104e-1,.5660116040,.2385023349
.384007039e-1,.5864978870,.2977246861
.225979970e-1,.6058131390,.3561506954
.58650815e-2,.6239977080,.4140045188
-.117757216e-1,.6410787230,.4714918652
-.303117683e-1,.6570715530,.5288071314
-.497394432e-1,.6719805940,.5861395371
.1275287672,.4317747388,-.2040044225
.1214731032,.4629376931,-.1296758332
.1136291970,.4919270079,-.5936229214e-1
.1042484162,.5190482252,.7826640638e-2
.935105198e-1,.5445198440,.7254404725e-1
.815478413e-1,.5685027190,.1352903138
.684595864e-1,.5911174360,.1964633585
.543207431e-1,.6124551440,.2563902914
.391878359e-1,.6325845510,.3153484430
.231027385e-1,.6515565530,.3735800112
.60952139e-2,.6694073290,.4313027736
-.118154228e-1,.6861603560,.4887183501
-.306192854e-1,.7018276520,.5460189676
.1344855095,.4483404610,-.2618418294
.1299667628,.4813715655,-.1837818773
.1234055448,.5119200099,-.1106262900
.1151318962,.5403869654,-.4121886856e-1
.1053749300,.5670509222,.2525646129e-1
.942999541e-1,.5921128152,.8940573439e-1
.820293729e-1,.6157214292,.1516981416
.686552420e-1,.6379886592,.2125102189
.542471722e-1,.6589991182,.2721541070
.388574813e-1,.6788163992,.3308965582
.225246158e-1,.6974872352,.3889723519
.52754277e-2,.7150442642,.4465942378
-.128733525e-1,.7315078242,.5039607223
.1384517142,.4628626818,-.3264019272
.1358363416,.4982073709,-.2434162601
.1308123250,.5306243098,-.1666091597
.1238334187,.5606650478,-.9440076724e-1
.1152018682,.5886969668,-.2572921188e-1
.1051296367,.6149777128,.4016460649e-1
.937707246e-1,.6396944768,.1038501963
.812396722e-1,.6629864838,.1657723048
.676228076e-1,.6849586658,.2262906038
.529853925e-1,.7056903518,.2857053854
.373763080e-1,.7252409558,.3442750302
.208311719e-1,.7436537728,.4022284780
.33744065e-2,.7609584898,.4597745824
.1387180804,.4745854383,-.3997954549
.1385697585,.5129288716,-.3100094391
.1354499355,.5476603922,-.2283590780
.1300241775,.5795890082,-.1525302115
.1227103530,.6092226462,-.8106641102e-1
.1137899849,.6369035032,-.1297583259e-1
.1034620543,.6628734422,.5245771119e-1
.918718977e-1,.6873091242,.1157759417
.791279672e-1,.7103423732,.1774048671
.653121170e-1,.7320726852,.2376911728
.504861832e-1,.7525752232,.2969260007
.346963153e-1,.7719060822,.3553612762
.179758647e-1,.7901058022,.4132214612
.1341282829,.4822321921,-.4856338684
.1374054215,.5247393331,-.3857954456
.1367576809,.5624757128,-.2974194925
.1332606115,.5967486842,-.2167541156
.1275317279,.6283088462,-.1416524436
.1199635653,.6576333312,-.7074494269e-1
.1108227876,.6850462762,-.3089815912e-2
.1002989550,.7107780942,.6199812849e-1
.885310588e-1,.7349977302,.1250403775
.756230558e-1,.7578315462,.1864492224
.616534719e-1,.7793749922,.2465618073
.466815788e-1,.7997001142,.3056625416
.307514671e-1,.8188605042,.3639986076
.1224787104,.4832825970,-.5911471379
.1310975188,.5322826310,-.4746199936
.1338960035,.5742079590,-.3762221470
.1329150608,.6115393252,-.2887780072
.1291639573,.6455035132,-.2087691057
.1232296655,.6768139982,-.1341547156
.1154883638,.7059280302,-.6362128967e-1
.1061970144,.7331579522,.3740376719e-2
.955389743e-1,.7587266382,.6859513713e-1
.836490276e-1,.7827979202,.1314511283
.706281337e-1,.8054945152,.1927115554
.565525884e-1,.8269091632,.2527072239
.414799338e-1,.8471118082,.3117180730
.52443820e-1,.2842229224,.1431578267
.39218088e-1,.3066705336,.2041552778
.24949894e-1,.3278510136,.2639443323
.9693717e-2,.3478305835,.3227971355
-.6510230e-2,.3666581214,.3809522441
-.23633593e-1,.3843680941,.4386249586
-.41658300e-1,.4009824667,.4960153506
-.60575621e-1,.4165118524,.5533148882
-.80385718e-1,.4309560521,.6107123202
-.101097661,.4443040424,.6683993284
-.122729883,.4565334183,.7265764236
-.145311147,.4676092164,.7854596186
-.168882147,.4774819729,.8452885167
.731771818e-1,.3073830024,.1120154412
.60500171e-1,.3304975938,.1737356057
.46746931e-1,.3523040103,.2340940428
.31980364e-1,.3728787089,.2933847205
.16247470e-1,.3922788208,.3518615562
-.417692e-3,.4105457448,.4097503912
-.17992047e-1,.4277075287,.4672580365
-.36462265e-1,.4437803753,.5245795055
-.55824075e-1,.4587694755,.5819042012
-.76082053e-1,.4726692690,.6394216244
-.97249847e-1,.4854631644,.6973270846
-.119350884,.4971226861,.7558279179
-.142419630,.5076059415,.8151507633
.926759834e-1,.3302419448,.7870020032e-1
.806003961e-1,.3540875778,.1412780294
.674074439e-1,.3765750333,.2023170122
.531701119e-1,.3977930270,.2621386477
.379433637e-1,.4178083678,.3210162996
.217678051e-1,.4366704132,.3791893809
.4672126e-2,.4544140355,.4368737730
-.13325307e-1,.4710615606,.4942699069
-.32215486e-1,.4866239370,.5515694250
-.51998307e-1,.5011012913,.6089610759
-.72682563e-1,.5144829358,.6666363652
-.94286390e-1,.5267468258,.7247954431
-.116838217,.5378584048,.7836537408
.1108544830,.3527189488,.4303761846e-1
.994412976e-1,.3773697424,.1066361541
.868603430e-1,.4006010916,.1684887659
.731968808e-1,.4225166345,.2289520209
.585153607e-1,.4431947092,.2883240204
.428640166e-1,.4626939465,.3468616038
.262779314e-1,.4810569895,.4047926369
.87810660e-2,.4983129632,.4623252616
-.96124456e-2,.5144790472,.5196552517
-.288975699e-1,.5295613612,.5769722663
-.490781177e-1,.5435552712,.6344655748
-.701669380e-1,.5564451612,.6923297554
-.921865770e-1,.5682036232,.7507708433
.1276091600,.3747179239,.4806689764e-2
.1169302498,.4002612433,.6962545554e-1
.1050213040,.4243094294,.1324526887
.919828191e-1,.4469846434,.1936902126
.778907490e-1,.4683792055,.2536678572
.628023695e-1,.4885627359,.3126648769
.467601614e-1,.5075868711,.3709248213
.297944008e-1,.5254884112,.4286663915
.119248550e-1,.5422913862,.4860917914
-.68381722e-2,.5580083182,.5433935444
-.264933164e-1,.5726408652,.6007604644
-.470480853e-1,.5861799042,.6583833165
-.685192362e-1,.5986050642,.7164606352
.1428138936,.3961223625,-.3627429505e-1
.1329557134,.4226632928,.3001268091e-1
.1217897249,.4476145572,.9401182473e-1
.1094357628,.4711218202,.1561843199
.959840172e-1,.4932947082,.2169011831
.815026885e-1,.5142161195,.2764706801
.660429824e-1,.5339482960,.3351568282
.496424323e-1,.5525368600,.3931924936
.323271102e-1,.5700135030,.4507891432
.141130484e-1,.5863977120,.5081445081
-.49929253e-2,.6016977860,.5654490053
-.249928437e-1,.6159112550,.6228915313
-.458977042e-1,.6290247510,.6806651275
.1563130355,.4167878669,-.8056858201e-1
.1473819747,.4444557255,-.1249929020e-1
.1370445548,.4704141310,.5291737389e-1
.1254458005,.4948393621,.1162221261
.1126939426,.5178629757,.1778402996
.988706721e-1,.5395842682,.2381181081
.840376990e-1,.5600782492,.2973463641
.682410733e-1,.5794008942,.3557767578
.515140622e-1,.5975926392,.4136335894
.338790510e-1,.6146806942,.4711226643
.153487446e-1,.6306805022,.5284384307
-.40731848e-2,.6455965262,.5857701220
-.243919104e-1,.6594224802,.6433074482
.1679111360,.4365309037,-.1285524869
.1600415915,.4654890546,-.5829367950e-1
.1506384400,.4925830794,.8852227359e-2
.1398805517,.5180303976,.7353541113e-1
.1278996511,.5419911238,.1362543394
.1147945107,.5645853158,.1974056171
.1006397914,.5859037268,.2573154407
.854917652e-1,.6060147558,.3162604932
.693921002e-1,.6249690508,.3744825173
.523703848e-1,.6428025778,.4321989819
.344457820e-1,.6595386288,.4896113100
.156280365e-1,.6751890498,.5469116310
-.40820303e-2,.6897548388,.6042887180
.1773570700,.4551111328,-.1808652249
.1707241782,.4855724558,-.1078736108
.1623892968,.5139649808,-.3859331720e-1
.1525785180,.5405635283,.2778167607e-1
.1414551702,.5655666245,.9185098316e-1
.1291402867,.5891213875,.1540795169
.1157249272,.6113385025,.2148408676
.1012779512,.6323016705,.2744451084
.858510847e-1,.6520737645,.3331575294
.694822878e-1,.6707009245,.3912118905
.521979974e-1,.6882152875,.4488202549
.340145739e-1,.7046367375,.5061807126
.149391514e-1,.7199739475,.5634838346
.1843182104,.4722021162,-.2383919559
.1791590541,.5044547916,-.1619157231
.1720677626,.5343589234,-.8995868971e-1
.1633394784,.5622732598,-.2148301844e-1
.1531817321,.5884500618,.4425572411e-1
.1417455788,.6130729368,.1078175713
.1291434944,.6362786028,.1696408993
.1154602934,.6581701528,.2300809683
.1007600819,.6788255078,.2894349631
.850908220e-1,.6983029688,.3479590743
.684873710e-1,.7166449028,.4058807171
.509734942e-1,.7338801988,.4634077374
.325631483e-1,.7500258208,.5207357389
.1883354366,.4873394550,-.3024117139
.1849869252,.5217930017,-.2213598749
.1793776849,.5534985912,-.1459723243
.1719100752,.5829453012,-.7484584598e-1
.1628565479,.6104643012,-.7019172626e-2
.1524103435,.6362904762,.5820498173e-1
.1407129374,.6605957942,.1213560139
.1278700510,.6835087612,.1828515863
.1139615187,.7051264172,.2430325811
.990476222e-1,.7255220342,.3021860478
.831732649e-1,.7447501952,.3605610267
.663707563e-1,.7628501712,.4183799882
.486616485e-1,.7798481612,.4758475487
.1887373042,.4998202114,-.3748862096
.1877103833,.5370956919,-.2875700684
.1839240794,.5710170933,-.2076516911
.1779612439,.6022928822,-.1331046574
.1701958325,.6313776092,-.6262302052e-1
.1608834818,.6585820032,.4697977278e-2
.1502066988,.6841279072,.6952040631e-1
.1382996883,.7081784482,.1323505698
.1252629969,.7308558412,.1935904243
.1111726114,.7522524512,.2535699034
.960858346e-1,.7724379292,.3125683309
.800451707e-1,.7914639412,.3708293034
.630809128e-1,.8093673092,.4285715589
.1844538381,.5084817142,-.4590999195
.1865989085,.5496128057,-.3626510929
.1851566585,.5863834455,-.2764846976
.1810507769,.6199163945,-.1973831590
.1748278982,.6508760965,-.1234456883
.1668422736,.6796931505,-.5343362971e-1
.1573377231,.7066639235,.1351818772e-1
.1464891323,.7320009915,.7804693543e-1
.1344254993,.7558611545,.1406424874
.1212436392,.7783620925,.2016955718
.1070167474,.7995927765,.2615282738
.917999524e-1,.8196202155,.3204143726
.756339927e-1,.8384939285,.3785935725
.80702540e-1,.2808275241,.1959805548
.66571834e-1,.3021751240,.2559162780
.51446676e-1,.3223139494,.3148811632
.35369044e-1,.3412950262,.3731176406
.18368790e-1,.3591546397,.4308436488
.465309e-3,.3759163644,.4882609068
-.18331442e-1,.3915923048,.5455616937
-.38020431e-1,.4061837135,.6029347946
-.58609506e-1,.4196810518,.6605711589
-.80115790e-1,.4320635080,.7186697388
-.102566569,.4432979123,.7774440123
-.126000803,.4533369102,.8371298472
-.150471436,.4621161475,.8979955458
.102504814,.3044973652,.1665789063
.88874105e-1,.3264527194,.2270808059
.74223589e-1,.3471684801,.2864828355
.58601953e-1,.3667038286,.3450429167
.42044657e-1,.3851018654,.4029896691
.24575986e-1,.4023921098,.4605317311
.6210368e-2,.4185920987,.5178651660
-.13046887e-1,.4337082887,.5751797335
-.33199311e-1,.4477363839,.6326646317
-.54259465e-1,.4606611184,.6905141834
-.76249575e-1,.4724554741,.7489339629
-.99202726e-1,.4830792359,.8081479207
-.123164751,.4924766960,.8684072402
.1231487843,.3279463818,.1351681193
.1100626706,.3505637017,.1963439276
.959258401e-1,.3719038567,.2562730337
.807948496e-1,.3920355928,.3152328499
.647115990e-1,.4110098397,.3734656308
.477058728e-1,.4288628020,.4311891954
.29797006e-1,.4456179806,.4886051868
.10994903e-1,.4612874150,.5459058449
-.8699459e-2,.4758722925,.6032799516
-.29293982e-1,.4893630091,.6609184877
-.50805845e-1,.5017386826,.7190204689
-.73262402e-1,.5129660642,.7777994867
-.96702687e-1,.5229977082,.8374915679
.1425625920,.3511067494,.1016127414
.1300716954,.3744475655,.1635911105
.1164923043,.3964652979,.2241539943
.1018903406,.4172400757,.2836034630
.863152085e-1,.4368319495,.3421991534
.698029568e-1,.4552847383,.4001708811
.523783813e-1,.4726285818,.4577280774
.340563692e-1,.4888815753,.5150672652
.148426683e-1,.5040507050,.5723783775
-.52658241e-2,.5181322002,.6298505098
-.262812145e-1,.5311113452,.6876775959
-.482252365e-1,.5429617222,.7460645085
-.711304075e-1,.5536438062,.8052341110
.1606602585,.3738994142,.6574175067e-1
.1488230174,.3980347609,.1286778485
.1358508968,.4207906402,.1900020939
.1218211488,.4422609563,.2500480117
.1067920599,.4625165557,.3090974547
.908069270e-1,.4816100666,.3673958033
.738967127e-1,.4995791250,.4251630144
.560817887e-1,.5164484928,.4826020879
.373730147e-1,.5322313698,.5399059601
.177722923e-1,.5469300688,.5972635098
-.27273395e-2,.5605361278,.6548652191
-.241420551e-1,.5730298848,.7129089739
-.464980850e-1,.5843794598,.7716064999
.1773383128,.3962306079,.2733899395e-1
.1662234368,.4212440012,.9142227711e-1
.1539163137,.4448081979,.1536619744
.1405081787,.4670340946,.2144321887
.1260680214,.4880055505,.2740433547
.1106476715,.5077855651,.3327610182
.942851742e-1,.5264203830,.3908191157
.770070392e-1,.5439422270,.4484298302
.588296914e-1,.5603710630,.5057913244
.397603265e-1,.5757156360,.5630941997
.197972746e-1,.5899739160,.6205273037
-.10700853e-2,.6031329950,.6782833926
-.228618646e-1,.6151684260,.7365651221
.1924711136,.4179869521,-.1387038696e-1
.1821610074,.4439785574,.5159490785e-1
.1705869982,.4684338665,.1149384870
.1578579545,.4914852111,.1765876351
.1440560368,.5132324584,.2368899229
.1292433177,.5337510585,.2961371173
.1134661355,.5530973375,.3545815836
.967579982e-1,.5713120245,.4124480884
.791415018e-1,.5884225835,.4699427395
.606295404e-1,.6044446905,.5272601566
.412259697e-1,.6193830305,.5845896212
.209257996e-1,.6332315385,.6421207756
-.2850579e-3,.6459730895,.7000493496
.2059041531,.4390283632,-.5823974431e-1
.1964998730,.4661210172,.8903996139e-2
.1857409764,.4915671090,.7358545396e-1
.1737591563,.5155267177,.1363030045
.1606531639,.5381198740,.1974531857
.1464976435,.5594373120,.2573621469
.1313488540,.5795474130,.3163065397
.1152484534,.5985008140,.3745280834
.982260219e-1,.6163334700,.4322442307
.803007138e-1,.6330686640,.4896563964
.614822671e-1,.6487182320,.5469567041
.417714969e-1,.6632831660,.6043339253
.211603361e-1,.6767536590,.6619791344
.2174442083,.4591774388,-.1062307075
.2090728818,.4875256650,-.3702583697e-1
.1992300510,.5140852510,.2928959915e-1
.1880778723,.5390533032,.9331143487e-1
.1757365688,.5625759532,.1555020528
.1622966124,.5847631702,.2162333001
.1478264158,.6056981132,.2758140284
.1323773523,.6254432262,.3345086655
.1159870948,.6440443002,.3925503654
.986818320e-1,.6615331712,.4501507887
.804777033e-1,.6779294532,.5075077801
.613816359e-1,.6932415692,.5648118070
.413916945e-1,.7074671652,.6222517519
.2268442604,.4782028840,-.1584599026
.2196706919,.5080070063,-.8668593031e-1
.2108714717,.5358351201,-.1835307329e-1
.2006509356,.5619356000,.4727253309e-1
.1891580069,.5864894640,.1107440855
.1765036630,.6096316070,.1724953469
.1627716186,.6314637870,.2328783830
.1480251381,.6520629010,.2921881282
.1323115123,.6714864340,.3506791834
.1156650409,.6897760770,.4085778632
.981090078e-1,.7069601310,.4660912873
.796569323e-1,.7230550300,.5234146460
.603132652e-1,.7380661830,.5807373989
.2337792265,.4957923478,-.2157759207
.2280250430,.5273217571,-.1407345089
.2204355891,.5566203630,-.6987321191e-1
.2112763188,.5840108300,-.2254304407e-2
.2007360197,.6097226320,.6280487226e-1
.1889531612,.6339240810,.1258241445
.1760313283,.6567410870,.1872146759
.1620487720,.6782687650,.2473128223
.1470645493,.6985789000,.3064024404
.1311225804,.7177248770,.3647303200
.1142543500,.7357449680,.4225173848
.964806880e-1,.7526644900,.4799672534
.778128760e-1,.7684971580,.5372731888
.2378043082,.5115048747,-.2793947584
.2337817226,.5451390721,-.2000811921
.2276267788,.5761813505,-.1259851900
.2196987810,.6050684505,-.5585085305e-1
.2102445932,.6321004395,.1119717372e-1
.1994410693,.6574922875,.7580248557e-1
.1874185565,.6814024325,.1384592034
.1742748382,.7039497335,.1995609621
.1600838368,.7252240415,.2594318792
.1449012463,.7452930575,.3183471726
.1287682672,.7642068585,.3765475523
.1117140934,.7820009315,.4342497852
.937575364e-1,.7986981425,.4916548547
.2382770691,.5246803641,-.3511593342
.2364538923,.5609879814,-.2660368497
.2320523751,.5941615792,-.1876827508
.2255874976,.6248271282,-.1143058362
.2173960355,.6533939822,-.4472700177e-1
.2077112138,.6801456322,.2188353632e-1
.1967010286,.7052862792,.8614053540e-1
.1844897418,.7289669662,.1485189961
.1711707526,.7513012222,.2093994467
.1568146876,.7723748932,.2690968283
.1414746622,.7922525442,.3278798723
.1251897761,.8109816992,.3859847425
.1079874372,.8285956752,.4436251239
.107801354,.2765435057,.2471593916
.92819650e-1,.2968567022,.3062512782
.76880103e-1,.3160056238,.3645808280
.60014228e-1,.3340285772,.4223690185
.42242880e-1,.3509509129,.4798195042
.23577366e-1,.3667863723,.5371255667
.4020014e-2,.3815377885,.5944761494
-.16435702e-1,.3951972281,.6520615259
-.37805493e-1,.4077455921,.7100790824
-.60115075e-1,.4191516252,.7687397076
-.83401564e-1,.4293702094,.8282754030
-.107715660,.4383397195,.8889489491
-.133124922,.4459780371,.9510668616
.130602882,.3006446634,.2193268995
.116081156,.3215169709,.2788558593
.100582815,.3412021859,.3375114019
.84144893e-1,.3597453243,.3955253588
.66793033e-1,.3771775547,.4531085036
.48542884e-1,.3935178989,.5104581536
.29400912e-1,.4087742169,.5677645557
.9364727e-2,.4229436027,.6252166625
-.11577038e-1,.4360122398,.6830078045
-.33445307e-1,.4479546960,.7413417290
-.56271671e-1,.4587325709,.8004395561
-.80100176e-1,.4682923252,.8605483644
-.104990038,.4765619827,.9219524219
.1523106343,.3245934950,.1896139115
.1382874537,.3460717934,.2496670695
.1232646102,.3663349843,.3087220790
.1072854872,.3854358002,.3670245142
.903811195e-1,.4034119653,.4247944656
.72571943e-1,.4202883187,.4822350189
.53868875e-1,.4360781328,.5395391549
.34273875e-1,.4507837871,.5968957597
.13780039e-1,.4643968904,.6544952873
-.7628747e-2,.4768978565,.7125355583
-.29978643e-1,.4882548847,.7712281838
-.53307291e-1,.4984222246,.8308062525
-.77666024e-1,.5073374795,.8915340950
.1728636934,.3483317677,.1579150813
.1593820656,.3704683331,.2185956049
.1448725132,.3913554375,.2781367431
.1293858160,.4110548062,.3368014758
.1129591596,.4296116377,.3948219427
.956183154e-1,.4470572575,.4524091260
.773790475e-1,.4634108282,.5097604673
.582479315e-1,.4786803415,.5670662623
.382226846e-1,.4928630231,.6245154469
.17292052e-1,.5059451921,.6823012632
-.4564768e-2,.5179015638,.7406272908
-.27379229e-1,.5286939088,.7997143934
-.51195209e-1,.5382688868,.8598092710
.1921895910,.3717928379,.1240969647
.1792982448,.3946469011,.1855279181
.1653442833,.4162093361,.2456579339
.1503872342,.4365525013,.3047720972
.1344713967,.4557302420,.3631180587
.1176285731,.4737812148,.4209173356
.998798724e-1,.4907310784,.4783739291
.812368306e-1,.5065938546,.5356813045
.617020017e-1,.5213726475,.5930284443
.412690846e-1,.5350597995,.6506055203
.199226058e-1,.5476365005,.7086096625
-.23628820e-2,.5590718185,.7672513331
-.256241866e-1,.5693210165,.8267618967
.2102018897,.3948992008,.8799136264e-1
.1979569739,.4185390111,.1503209378
.1846067161,.4408352588,.2111625428
.1702211653,.4618730900,.2708295248
.1548529846,.4817165171,.3295894899
.1385409019,.5004126150,.3876778144
.1213120105,.5179943162,.4453076506
.1031832564,.5344822182,.5026777475
.841623237e-1,.5498856602,.5599789643
.642480211e-1,.5642031972,.6174001014
.434302248e-1,.5774225212,.6751335515
.216893614e-1,.5895198402,.7333812668
-.10046248e-2,.6004586232,.7923615510
.2267968723,.4175591359,.4938607887e-1
.2152642578,.4420647614,.1127948507
.2025733618,.4651624749,.1744960130
.1888071350,.4869531057,.2348394237
.1740282574,.5075128409,.2941184579
.1582835526,.5268985970,.3525866186
.1416069324,.5451515920,.4104694584
.1240213433,.5622997210,.4679735988
.1055399992,.5783590430,.5252939475
.861670600e-1,.5933346160,.5826198739
.658978401e-1,.6072207440,.6401409148
.447185740e-1,.6200006950,.6980524910
.226057057e-1,.6316458370,.7565621308
.2418489582,.4396620043,.8011867454e-2
.2311074498,.4651292331,.7272308670e-1
.2191414791,.4891081056,.1354644088
.2060501746,.5117191155,.1966335172
