-.2588220825,.6092984918,.4603986082
-.1231831911,.3232082413,-.3985983377
-.1233747971,.3614990617,-.3089351524
-.1265271483,.3961910436,-.2273701888
-.1319789537,.4280879996,-.1516041808
-.1393145778,.4576951399,-.8018837441e-1
-.1482538009,.4853530773,-.1213531912e-1
-.1585984650,.5113026776,.5326846702e-1
-.1702037840,.5357199293,.1165629370
-.1829616953,.5587361846,.1781729079
-.1967906331,.5804505888,.2384442362
-.2116289826,.6009380358,.2976674804
-.2274307697,.6202544058,.3560941516
-.2441627927,.6384400598,.4139484297
-.1276236936,.3309542880,-.4840763175
-.1244150237,.3733782028,-.3844446078
-.1251101817,.4110569462,-.2962017033
-.1286432880,.4452861142,-.2156297892
-.1344012479,.4768109331,-.1405973670
-.1419938801,.5061056755,-.6974296326e-1
-.1511559121,.5334927856,-.2129459610e-2
-.1616986704,.5592015986,.6292542470e-1
-.1734837641,.5834003305,.1259412676
-.1864076628,.6062148255,.1873290662
-.2003921574,.6277401475,.2474250588
-.2153782226,.6480480435,.3065130194
-.2313219634,.6671918675,.3648396791
-.1390523013,.3321835302,-.5889987499
-.1305582343,.3810319391,-.4728722082
-.1278345447,.4228663512,-.3746985067
-.1288679153,.4601339912,-.2874003118
-.1326591602,.4940493881,-.2074946292
-.1386260035,.5253203051,-.1329570473
-.1463948020,.5544009150,-.6248267861e-1
-.1557101031,.5816017235,.4832610810e-2
-.1663895198,.6071444252,.6965050031e-1
-.1782989279,.6311920512,.1324770382
-.1913378399,.6538667452,.1937140050
-.2054303116,.6752608192,.2536912123
-.2205190735,.6954438852,.3126878972
-.1630905076,.3202574964,-.7327230490
-.1441530882,.3817999826,-.5818538469
-.1360684354,.4301507399,-.4670389500
-.1335921266,.4716844575,-.3696046861
-.1347995954,.5087404793,-.2827898020
-.1387244684,.5424934469,-.2032267226
-.1447998598,.5736324228,-.1289444337
-.1526604629,.6026014419,-.5866654823e-1
-.1620558117,.6297049510,.8494356656e-2
-.1728067262,.6551607460,.7318947178e-1
-.1847812702,.6791291990,.1359179307
-.1978805190,.7017305520,.1970767953
-.2120296992,.7230556960,.2569925832
-.2364698792+.3491427077e-1*I,.2507736894+.4243890833e-1*I,-1.047197552+.1282880688*I
-.1714101263,.3683786783,-.7326890626
-.1524757962,.4299174109,-.5818304150
-.1443924722,.4782665521,-.4670197694
-.1419169713,.5197992882,-.3695879145
-.1431250103,.5568546153,-.2827746134
-.1470503220,.5906070512,-.2032126525
-.1531260697,.6217455936,-.1289312008
-.1609869751,.6507142455,-.5865396034e-1
-.1703825874,.6778174345,.8506438845e-2
-.1811337375,.7032729435,.7320115082e-1
-.1931084955,.7272411355,.1359292864
-.2062079436,.7498422465,.1970878961
-.2275839179+.1026322967*I,.2840179467+.1247513563*I,-1.047197552+.3696674939*I
-.2464846565+.4184795145e-1*I,.2995674867+.5086691876e-1*I,-1.047197552+.1535826337*I
-.1844699454,.4134711755,-.7444648248
-.1644433425,.4763375828,-.5898653697
-.1558990496,.5252470400,-.4735775881
-.1531452113,.5671180993,-.3753135679
-.1541574378,.6044114414,-.2879565328
-.1579324882,.6383465216,-.2080092268
-.1638861956,.6696334060,-.1334406625
-.1716438965,.6987275050,-.6294247047e-1
-.1809495292,.7259400660,.4391529866e-2
-.1916203158,.7514932580,.6922429538e-1
-.2035218670,.7755504340,.1320627171
-.2206417820+.1452007024*I,.3180497882+.1764939997*I,-1.047197552+.5122835718*I
-.2395425207+.1084086636*I,.3335993281+.1317726313*I,-1.047197552+.3895036499*I
-.2584432600+.5389998692e-1*I,.3491488689+.6551637916e-1*I,-1.047197552+.1973096278*I
-.2034627130,.4545024080,-.7715057546
-.1807522222,.5206311283,-.6076527221
-.1711488749,.5708278854,-.4879485240
-.1677695032,.6134592914,-.3878010644
-.1683465958,.6512815466,-.2992266051
-.1717900435,.6856196948,-.2184219528
-.1774757013,.7172323988,-.1432171683
-.1850075103,.7466010728,-.7223064517e-1
-.1941167267,.7740523808,-.4513591327e-2
-.2046124668,.7998183458,.6062353351e-1
-.2159951534+.1819890902*I,.3530117061+.2212109306*I,-1.047197551+.6283580689*I
-.2348958936+.1523132900*I,.3685612470+.1851394744*I,-1.047197552+.5352640888*I
-.2537966310+.1173125108*I,.3841107864+.1425954139*I,-1.047197552+.4197943347*I
-.2726973716+.6934469702e-1*I,.3996603282+.8428969514e-1*I,-1.047197552+.2527966326*I
-.2310896490,.4887589642,-.8223671538
-.2025745312,.5619433096,-.6382510966
-.1910143770,.6145186005,-.5121582657
-.1865298158,.6584933836,-.4086409830
-.1863548506,.6972297765,-.3179339266
-.1892327304,.7322553845,-.2356456753
-.1944652908,.7644188355,-.1593483990
-.2016177436,.7942486235,-.8752752475e-1
-.2103987500,.8220988775,-.1915806291e-1
-.2141461905+.2167853858*I,.3891071618+.2635064377*I,-1.047197551+.7316818517*I
-.2330469301+.1908797961*I,.4046567023+.2320177390*I,-1.047197552+.6553589828*I
-.2519476688+.1623510582*I,.4202062426+.1973405579*I,-1.047197551+.5672602444*I
-.2708484071+.1294766868*I,.4357557825+.1573811832*I,-1.047197551+.4605926586*I
-.2897491470+.8748791077e-1*I,.4513053234+.1063430895*I,-1.047197552+.3170093621*I
-.2774670903,.5047580988,-.9320514974
-.2320765894,.5984547685,-.6877359406
-.2169344157,.6553840675,-.5497317048
-.2105928971,.7016160135,-.4404431857
-.2092025427,.7418297345,-.3462188872
-.2111868485,.7779414975,-.2615348232
-.2157141419,.8109622125,-.1834962673
-.2222823923,.8415021095,-.1103567924
-.2158567039+.2514669557*I,.4266448185+.3056624943*I,-1.047197551+.8284496086*I
-.2347574436+.2279710413*I,.4421943589+.2771027977*I,-1.047197552+.7635611501*I
-.2536581822+.2029520581*I,.4577438997+.2466917856*I,-1.047197551+.6913612867*I
-.2725589229+.1757607917*I,.4732934411+.2136403240*I,-1.047197552+.6091972485*I
-.2914596614+.1451817869*I,.4888429810+.1764710076*I,-1.047197552+.5122221187*I
-.3103604002+.1083846063*I,.5043925214+.1317433895*I,-1.047197552+.3894213344*I
-.3292611398+.5385416100e-1*I,.5199420623+.6546067698e-1*I,-1.047197552+.1971440156*I
-.2742490595,.6253339302,-.7713850107
-.2515511287,.6914473841,-.6075754709
-.2419525000,.7416384055,-.4878865629
-.2385758724,.7842664755,-.3877474068
-.2391548593,.8220864275,-.2991782731
-.2425997431,.8564228315,-.2183773526
-.943275025e-1,.2850001222,-.1280670108
-.1022081165,.3139448193,-.5783180593e-1
-.1116209285,.3410271016,.9295543869e-2
-.1223874525,.3664639236,.7396396671e-1
-.1343762245,.3904150807,.1366711017
-.1474886615,.4130004037,.1978129901
-.1616502415,.4343104755,.2577154361
-.1768048025,.4544135608,.3166548418
-.1929107655,.4733602008,.3748727553
-.2099386165,.4911862707,.4325865113
-.2278692575,.5079149819,.4899974493
-.2466930065,.5235581050,.5472976567
-.2664091015,.5381165665,.6046759030
-.848132548e-1,.3035989192,-.1802478572
-.914612792e-1,.3340418497,-.1072907842
-.998090987e-1,.3624186491,-.3803728513e-1
-.1096312536,.3890033683,.2831655225e-1
-.1207648327,.4139940277,.9236899632e-1
-.1330890905,.4375373964,.1545840616
-.1465131765,.4597439047,.2153347186
-.1609683905,.4806970597,.2749306056
-.1764031305,.5004595826,.3336367057
-.1927795395,.5190774910,.3916865643
-.2100712675,.5365828120,.4492921003
-.2282620345,.5529953368,.5066513172
-.2473447775,.5683236478,.5639547487
-.777736272e-1,.3207171616,-.2376182178
-.829534976e-1,.3529446589,-.1611925395
-.900620397e-1,.3828278221,-.8927395535e-1
-.988051886e-1,.4107240909,-.2082826843e-1
-.1089760868,.4368849063,.4488672486e-1
-.1204241282,.4614933314,.1084296193
-.1330371517,.4846857008,.1702378197
-.1467305742,.5065648259,.2306659133
-.1614404660,.5272084150,.2900106130
-.1771190060,.5466745953,.3485277737
-.1937314538,.5650055940,.4064445791
-.2112541450,.5822301760,.4639687221
-.2296732150,.5983651940,.5212957189
-.736638218e-1,.3358944566,-.3014455275
-.770411892e-1,.3703129277,-.2204689021
-.826736415e-1,.4019903029,-.1451369316
-.901607423e-1,.4314133210,-.7405299875e-1
-.992311709e-1,.4589117761,-.6259642386e-2
-.1096924050,.4847196837,.5893806613e-1
-.1214034523,.5090084203,.1220679773
-.1342589357,.5319060755,.1835467094
-.1481792740,.5535093801,.2437144148
-.1631043830,.5738913688,.3028576308
-.1789895164,.5931064318,.3612250347
-.1958024961,.6111936798,.4190388471
-.2135218861,.6281791708,.4765035245
-.731486035e-1,.3484350429,-.3736707682
-.742172461e-1,.3856598100,-.2864706557
-.780355225e-1,.4195423476,-.2066344085
-.840243012e-1,.4507866020,-.1321485191
-.918116375e-1,.4798446796,-.6171391048e-1
-.1011430924,.5070258526,.5570147547e-2
-.1118369307,.5325510249,.7036320480e-1
-.1237594720,.5565826871,.1331699053
-.1368105454,.5792425988,.1943910734
-.1509144437,.6006227838,.2543558515
-.1660140813,.6207926298,.3133430035
-.1820671308,.6398035868,.3715957354
-.1990434468,.6576922978,.4293325149
-.772849812e-1,.3571908094,-.4575362801
-.752044247e-1,.3982434833,-.3612787495
-.766926243e-1,.4349582701,-.2752388238
-.808340390e-1,.4684480284,-.1962275430
-.870859314e-1,.4993724650,-.1223576203
-.950961880e-1,.5281595770,-.5239769878e-1
-.1046222797,.5551041664,.1451308248e-1
-.1154901579,.5804177907,.7900916807e-1
-.1275713960,.6042565532,.1415786252
-.1407695928,.6267376342,.2026109495
-.1550118619,.6479496272,.2624273605
-.1702433170,.6679592462,.3213010245
-.1864234157,.6868157732,.3794712196
-.880022817e-1,.3599848211,-.5592687584
-.811591909e-1,.4068264388,-.4484001598
-.794509224e-1,.4474265886,-.3532424123
-.812056916e-1,.4838173560,-.2679332250
-.855539408e-1,.5170557045,-.1894450400
-.919751122e-1,.5477743778,-.1159673736
-.1001293357,.5763864971,-.4631057447e-1
-.1097814996,.6031778432,.2036142717e-1
-.1207623783,.6283541122,.8466738539e-1
-.1329468627,.6520673782,.1470849574
-.1462409399,.6744319152,.2079964947
-.1605735221,.6955341302,.2677182168
-.1758911306,.7154390292,.3265197600
-.1098908443,.3514472195,-.6944643151
-.942164171e-1,.4090234812,-.5546695920
-.876168246e-1,.4555691228,-.4445691333
-.860623447e-1,.4959823411,-.3498635996
-.879279317e-1,.5322384076,-.2648566951
-.923625127e-1,.5653718163,-.1865856884
-.988545404e-1,.5960043638,-.1132712523
-.1070691499,.6245430820,-.4374078607e-1
-.1167742815,.6512700450,.2283160907e-1
-.1278026994,.6763885300,.8705822167e-1
-.1400306664,.7000489420,.1494124088
-.1533651634,.7223643470,.2102735692
-.1677358509,.7434202450,.2699558530
-.1721181967,.2963906042,-.9678962716
-.1195971766,.3987545456,-.6977606059
-.1036576865,.4566529947,-.5570724345
-.969312582e-1,.5033528078,-.4465721057
-.952965420e-1,.5438635536,-.3516307934
-.971042608e-1,.5801899601,-.2664661497
-.1014937342,.6133781987,-.1880817561
-.1079487260,.6440557630,-.1146820723
-.1161317629,.6726328590,-.4508561330e-1
-.1258091941,.6993934920,.2153882058e-1
-.1368127460,.7245422020,.8580688863e-1
-.1490179654,.7482302640,.1481941914
-.1623313141,.7705713760,.2090816705
-.1853483572+.9462656348e-1*I,.3037498625+.1150202471*I,-1.047197551+.3419450278*I
-.2042490962+.1603359802e-1*I,.3192994028+.1948911953e-1*I,-1.047197552+.5904085042e-1*I
-.1339508580,.4432718639,-.7123236258
-.1168051551,.5026364871,-.5675553382
-.1095155312,.5500208728,-.4552730400
-.1075279373,.5909605488,-.3592907939
-.1090824751,.6275947012,-.2734331891
-.1132752524,.6610220282,-.1945521708
-.1195691182,.6918954432,-.1207798112
-.1276150323,.7206392142,-.5089521743e-1
-.1371723222,.7475458812,.1595625306e-1
-.1480681440,.7728255382,.8040512236e-1
-.1601748992,.7966332862,.1429368621
-.1791263772+.1402192273*I,.3380734915+.1704389294*I,-1.047197552+.4960384125*I
-.1980271164+.1019937378*I,.3536230320+.1239751766*I,-1.047197552+.3674659778*I
-.2169278545+.4034340474e-1*I,.3691725716+.4903811584e-1*I,-1.047197552+.1481016712*I
-.1541954745,.4839486021,-.7416934204
-.1344299315,.5464976865,-.5879894476
-.1259942046,.5952751800,-.4720501140
-.1233055873,.6370669618,-.3739814228
-.1243635762,.6743046785,-.2867516939
-.1281736852,.7081971435,-.2068944753
-.1341558357,.7394494555,-.1323929689
-.1419375691,.7685143425,-.6194634944e-1
-.1512641415,.7957014505,.5347143736e-2
-.1619536206,.8212319215,.7014770444e-1
-.1753466902+.1787045680*I,.3733866707+.2172185357*I,-1.047197552+.6182786976*I
-.1942474288+.1485636682*I,.3889362104+.1805817434*I,-1.047197552+.5231808229*I
-.2131481680+.1126524758*I,.4044857514+.1369310597*I,-1.047197552+.4039849235*I
-.2320489068+.6159199577e-1*I,.4200352915+.7486615082e-1*I,-1.047197552+.2250292780*I
-.1829801198,.5182029842,-.7940721030
-.1578248962,.5873033190,-.6217225487
-.1473439554,.6385668066,-.4991647679
-.1434608512,.6818105083,-.3974878391
-.1436925114,.7200526422,-.3079382134
-.1468749918,.7547080012,-.2264522723
-.1523509378,.7865756132,-.1507444617
-.1597067758,.8161581832,-.7937310801e-1
-.1686634890,.8437948622,-.1135481026e-1
-.1745818263+.2148704583*I,.4099213726+.2611788097*I,-1.047197551+.7261595692*I
-.1934825667+.1888003498*I,.4254709141+.2294901357*I,-1.047197552+.6490807279*I
-.2123833055+.1600168973*I,.4410204544+.1945033446*I,-1.047197551+.5598658005*I
-.2312840441+.1266839347*I,.4565699945+.1539865440*I,-1.047197551+.4512870171*I
-.2501847839+.8352129849e-1*I,.4721195352+.1015216028*I,-1.047197552+.3030699967*I
-.2289155335,.5364964015,-.8986470690
-.1893988022,.6230534027,-.6754527626
-.1751988477,.6788374159,-.5406059116
-.1693253611,.7245004622,-.4327839799
-.1682356363,.7643487632,-.3394374040
-.1704386058,.8001947342,-.2553452475
-.1751372724,.8330071442,-.1777342271
-.1818467680,.8633753552,-.1049172088
-.563806670e-1,.2874826927,-.5784266394e-1
-.657932520e-1,.3145652517,.9285123653e-2
-.765595730e-1,.3400023194,.7395389105e-1
-.885481610e-1,.3639537018,.1366613039
-.1016604260,.3865392334,.1978034136
-.1158218450,.4078495011,.2577060325
-.1309762520,.4279527731,.3166455711
-.1470820670,.4468995933,.3748635812
-.1641097730,.4647258383,.4325774003
-.1820402730,.4814547224,.4899883714
-.2008638810,.4970980168,.5472885814
-.2205798340,.5116566508,.6046667998
-.2411962500,.5251207555,.6623141302
-.447795587e-1,.3076436135,-.1057189548
-.531622219e-1,.3359780597,-.3653751006e-1
-.630150279e-1,.3625255225,.2975942788e-1
-.741761808e-1,.3874826656,.9376651473e-1
-.865257100e-1,.4109953167,.1559453525
-.999733260e-1,.4331732226,.2166672484
-.1144507570,.4540993730,.2762406768
-.1299067360,.4738360802,.3349297958
-.1463036810,.4924290264,.3929675718
-.1636154790,.5099099519,.4505655406
-.1818260620,.5262983898,.5079214725
-.2009285650,.5416026820,.5652258022
-.2209249890,.5558203990,.6226674221
-.353107210e-1,.3266870509,-.1578162684
-.424995697e-1,.3564725991,-.8607620506e-1
-.513119741e-1,.3842846868,-.1776981544e-1
-.615441881e-1,.4103709723,.4783481924e-1
-.730476818e-1,.4349119934,.1112896298
-.857117554e-1,.4580423113,.1730275328
-.994528963e-1,.4798634336,.2333999999
-.1142079970,.5004520703,.2927015520
-.1299298914,.5198655524,.3511864950
-.1465843826,.5381454466,.4090809408
-.1641482775,.5553199450,.4665918760
-.1826081365,.5714053820,.5239144141
-.2019595875,.5864070750,.5812379916
-.282967634e-1,.3443029992,-.2149763248
-.340715990e-1,.3758073057,-.1399840524
-.416784395e-1,.4050847777,-.6916044495e-1
-.508528166e-1,.4324568819,-.1571087397e-2
-.614065702e-1,.4581523295,.6346461516e-1
-.732016574e-1,.4823389150,.1264651394
-.861347950e-1,.5051421800,.1878407278
-.1001279571,.5266569662,.2479270960
-.1151222611,.5469548471,.3070076491
-.1310739265,.5660890382,.3653288588
-.1479515869,.5840976672,.4231114288
-.1657345148,.6010059262,.4805588385
-.1844115241,.6168274152,.5378642763
-.241786698e-1,.3600543321,-.2784040018
-.282296615e-1,.3936540010,-.1991628132
-.344077604e-1,.4246681331,-.1251209040
-.423553920e-1,.4535313679,-.5502827636e-1
-.518267336e-1,.4805425072,.1198694005e-1
-.626456041e-1,.5059157004,.7656614150e-1
-.746821165e-1,.5298088294,.1392020013
-.878388175e-1,.5523403488,.2002871596
-.1020420339,.5735998102,.2601450407
-.1172362641,.5936546782,.3190503709
-.1333804642,.6125548392,.3772435166
-.1504455748,.6303356192,.4349410099
-.1684129003,.6470197402,.4923436874
-.235924918e-1,.3732876884,-.3499227207
-.254561462e-1,.4095461046,-.2649105506
-.298892198e-1,.4426813462,-.1866357564
-.363800091e-1,.4733153977,-.1133184753
-.445935629e-1,.5018553992,-.4378580470e-1
-.542977677e-1,.5285834887,.2278833004e-1
-.653253536e-1,.5537029851,.8701632823e-1
-.775525597e-1,.5773643222,.1493716221
-.908863488e-1,.5996805872,.2102336614
-.1052563686,.6207372972,.2699166335
-.1206097179,.6405987522,.3286887344
-.1369074729,.6593122652,.3867857541
-.1541223755,.6769109702,.4444211259
-.275306514e-1,.3829430532,-.4325241533
-.264510338e-1,.4227790673,-.3392070033
-.286613821e-1,.4586160704,-.2551347565
-.333658457e-1,.4914214333,-.1775381499
-.400801270e-1,.5217838268,-.1047320176
-.484846328e-1,.5500917219,-.3559566025e-1
-.583566620e-1,.5766158189,.3066566576e-1
-.695351144e-1,.6015519338,.9464436176e-1
-.819005034e-1,.6250453078,.1568005243
-.953628915e-1,.6472052588,.2175044237
-.1098542712,.6681144528,.2770638029
-.1253235883,.6878349468,.3357423064
-.1417334334,.7064122128,.3937725433
-.377478741e-1,.3870682684,-.5317818772
-.323162814e-1,.4321941872,-.4253374116
-.315139217e-1,.4716931888,-.3328251814
-.339273626e-1,.5072833297,-.2492993546
-.387917248e-1,.5398943337,-.1720990389
-.456382215e-1,.5700960161,-.9959258603e-1
-.541560389e-1,.5982661803,-.3068907529e-1
-.641278935e-1,.6246689365,.3538822632e-1
-.753962618e-1,.6494957575,.9922018105e-1
-.878441430e-1,.6728888595,.1612591541
-.1013834125,.6949553615,.2218700865
-.1159474370,.7157762535,.2813569707
-.1314862514,.7354122735,.3399808060
-.581529324e-1,.3811387978,-.6607946156
-.450299830e-1,.4356136927,-.5295364753
-.397092099e-1,.4806049059,-.4234363297
-.389794535e-1,.5200156594,-.3311341574
-.414462947e-1,.5555408900,-.2477514839
-.463528122e-1,.5881006520,-.1706552371
-.532342325e-1,.6182598861,-.9822759635e-1
-.617820225e-1,.6463936180,-.2938538585e-1
-.717803128e-1,.6727642410,.3664344114e-1
-.830725143e-1,.6975620930,.1004367339
-.955422775e-1,.7209285960,.1624448333
-.1091019542,.7429702920,.2230312862
-.1236852740,.7637677320,.2824991042
-.1055308183,.3450417795,-.8790120099
-.691473811e-1,.4277902051,-.6670191619
-.555731925e-1,.4828135894,-.5342601788
-.500185271e-1,.5280891031,-.4274327961
-.491357879e-1,.5676858083,-.3346876536
-.514902145e-1,.6033476821,-.2510033724
-.563080435e-1,.6360152472,-.1736879860
-.631160229e-1,.6662637492,-.1010944366
-.716008030e-1,.6944740702,-.3212321891e-1
-.815435349e-1,.7209122262,.3400761220e-1
-.927856575e-1,.7457709492,.9788225712e-1
-.1052094492,.7691933332,.1599553202
-.1187262590,.7912871332,.2205932886
-.1433395369+.8639728258e-1*I,.3235736475+.1050174118*I,-1.047197552+.3131825393*I
-.1283041085,.3803731931,-.9218329686
-.847862467e-1,.4717936386,-.6842670857
-.699139603e-1,.5283948845,-.5471688713
-.637050378e-1,.5744656592,-.4382966225
-.623994631e-1,.6145763273,-.3443203485
-.644452762e-1,.6506133262,-.2598031393
-.690206952e-1,.6835755450,-.1818849245
-.756285636e-1,.7140672850,-.1088361276
-.839420587e-1,.7424858070,-.3951148934e-1
-.937340362e-1,.7691072070,.2689850952e-1
-.1048404793,.7941308500,.9099571605e-1
-.1171398776,.8177044370,.1532465362
-.1378809327+.1354433419*I,.3582065755+.1646337570*I,-1.047197552+.4803491031*I
-.1567816720+.9567360876e-1*I,.3737561158+.1162929489*I,-1.047197552+.3455855850*I
-.1756824104+.2110821336e-1*I,.3893056559+.2565740344e-1*I,-1.047197552+.7769418780e-1*I
-.1063859268,.5120604683,-.7162289878
-.889066831e-1,.5718305157,-.5703284952
-.814653316e-1,.6193993289,-.4575643773
-.793836180e-1,.6604534087,-.3613034188
-.808709927e-1,.6971691985,-.2752612227
-.850117695e-1,.7306597325,-.1962483219
-.912631406e-1,.7615848025,-.1223771876
-.992729542e-1,.7903724525,-.5241632876e-1
-.1087986587,.8173175125,.1449518884e-1
-.1196661902,.8426315585,.7899186087e-1
-.1350307467+.1757308665*I,.3938963622+.2136039496*I,-1.047197552+.6091046992*I
-.1539314874+.1451472966*I,.4094459038+.1764290840*I,-1.047197552+.5121100618*I
-.1728322254+.1083407381*I,.4249954437+.1316900669*I,-1.047197552+.3892712258*I
-.1917329648+.5377052367e-1*I,.4405449845+.6535901436e-1*I,-1.047197551+.1968417413*I
-.1366634357,.5460066834,-.7711650195
-.1139883750,.6120923368,-.6074346757
-.1043983435,.6622729095,-.4877736199
-.1010267173,.7048949008,-.3876495903
-.1016091559,.7427106558,-.2990901665
-.1050566582,.7770438778,-.2182960511
-.1107455829,.8086526098,-.1430990689
-.1182801385,.8380179458,-.7211851995e-1
-.1273917389,.8654663568,-.4406148005e-2
-.20476841e-1,.2881065593,.8332793438e-2
-.31224606e-1,.3135661827,.7303329857e-1
-.43196279e-1,.3375381240,.1357660619
-.56292869e-1,.3601427106,.1969283565
-.70439547e-1,.3814708949,.2568468385
-.85579916e-1,.4015912309,.3157985184
-.101672204,.4205544944,.3740253714
-.118686731,.4383967579,.4317450199
-.136604260,.4551414081,.4891589877
-.155414973,.4708003767,.5464594533
-.175117979,.4853747475,.6038351928
-.195721266,.4988548111,.6614772359
-.217242108,.5112195717,.7195847072
-.70662062e-2,.3095228666,-.3605326780e-1
-.169288978e-1,.3360583125,.3022534746e-1
-.280989467e-1,.3610046426,.9421782879e-1
-.404566305e-1,.3845073807,.1563850000
-.539118425e-1,.4066760553,.2170976389
-.683964455e-1,.4275934872,.2766638377
-.838592815e-1,.4473218589,.3353474943
-.1002628585,.4659067438,.3933813895
-.1175811405,.4833797895,.4509769339
-.1357981245,.4997604466,.5083318247
-.1549070115,.5150569787,.5656364647
-.1749098665,.5292668788,.6230797546
-.1958177125,.5423767450,.6808547592
.44618363e-2,.3300781925,-.8399049730e-1
-.43955949e-2,.3578355484,-.1577431522e-1
-.146677094e-1,.3838733340,.4975882286e-1
-.262073146e-1,.4083704620,.1131565634
-.389046523e-1,.4314603460,.1748489243
-.526769038e-1,.4532436531,.2351853742
-.674614938e-1,.4737964453,.2944590174
-.832116794e-1,.4931755389,.3529231631
-.998936177e-1,.5114220707,.4108032306
-.1174844215,.5285638613,.4683057549
-.1359709295,.5446169058,.5256255931
-.1553490355,.5595861998,.5829521008
-.1756234745,.5734659828,.6404748316
.138647473e-1,.3495504315,-.1360726149
.61675686e-2,.3787180958,-.6544421892e-1
-.30853683e-2,.4059947089,.1991999068e-2
-.137091413e-1,.4316050471,.6690601937e-1
-.255679036e-1,.4557142349,.1298093484
-.385599351e-1,.4784459122,.1911074848
-.526083763e-1,.4998935063,.2511328404
-.676552442e-1,.5201274946,.3101664831
-.836574876e-1,.5392002074,.3684532415
-.1005843504,.5571490290,.4262126927
-.1184156423,.5739985020,.4836475952
-.1371406702,.5897616220,.5409507593
-.1567576940,.6044405060,.5983110425
.208253013e-1,.3676413307,-.1931118026
.144954330e-1,.3984709854,-.1194229644
.64189139e-2,.4271775545,-.4960289739e-1
-.31651686e-2,.4540516546,.1719775399e-1
-.140849981e-1,.4793021305,.8160616389e-1
-.262136835e-1,.5030832211,.1441055802
-.394559265e-1,.5255107635,.2050821926
-.537396705e-1,.5466723424,.2648549071
-.690106786e-1,.5666338838,.3236952585
-.852289378e-1,.5854440268,.3818413763
-.1023662592,.6031370318,.4395082706
-.1204047226,.6197346838,.4968958323
-.1393357346,.6352474278,.5541954464
.249130545e-1,.3839330101,-.2562624467
.202396711e-1,.4167761503,-.1785885288
.135510421e-1,.4471697258,-.1057240156
.51684909e-2,.4755043077,-.3654234026e-1
-.46842163e-2,.5020518900,.2975477962e-1
-.158452805e-1,.5270091410,.9376201228e-1
-.281947283e-1,.5505218911,.1559409665
-.416422694e-1,.5726998898,.2166629566
-.561196279e-1,.5936261268,.2762364560
-.715755382e-1,.6133629168,.3349256292
-.879724171e-1,.6319559438,.3929634448
-.1052841511,.6494369478,.4505614372
-.1234946698,.6658254638,.5079173801
.255136133e-1,.3978065543,-.3272541242
.229248910e-1,.4331836381,-.2441973484
.179219829e-1,.4656262351,-.1673384031
.109606057e-1,.4956882804,-.9509066968e-1
.23441263e-2,.5237385184,-.2638848000e-1
-.77147939e-2,.5500354446,.3952958046e-1
-.190616910e-1,.5747668128,.1032345123
-.315817005e-1,.5980722415,.1651720617
-.451882579e-1,.6200569535,.2257025965
-.598159201e-1,.6408004935,.2851268930
-.754156633e-1,.6603624525,.3437036788
-.919517506e-1,.6787862685,.4016621326
-.1093996568,.6961017535,.4592112651
.216833708e-1,.4082717436,-.4088821961
.218672381e-1,.4470189584,-.3181496858
.189959953e-1,.4820526321,-.2358438716
.137687216e-1,.5142225105,-.1595337227
.66206762e-2,.5440576564,-.8770305102e-1
-.21565284e-2,.5719125302,-.1932594550e-1
-.123575696e-1,.5980367062,.4633472040e-1
-.238328658e-1,.6226120032,.1098342573
-.364709748e-1,.6457738802,.1716078500
-.501878425e-1,.6676245072,.2320085564
-.649199429e-1,.6882411012,.2913320050
-.806197776e-1,.7076813972,.3498332885
-.972528739e-1,.7259872982,.4077390625
.117969954e-1,.4135475091,-.5062265577
.160045394e-1,.4571855738,-.4035587665
.159930107e-1,.4956952800,-.3133838090
.129757781e-1,.5305515015,-.2314635455
.76320571e-2,.5625798356,-.1554362414
.3868254e-3,.5922968488,-.8382105110e-1
-.84742597e-2,.6200497660,-.1561217146e-1
-.187496120e-1,.6460836150,.4991517413e-1
-.302921493e-1,.6705771790,.1133082906
-.429921878e-1,.6936637790,.1749969624
-.567669669e-1,.7154440140,.2353304954
-.715539521e-1,.7359938950,.2946018789
-.873064367e-1,.7553701940,.3530643425
-.75836289e-2,.4097001257,-.6306473746
.34733547e-2,.4616638025,-.5062061414
.76799524e-2,.5053007171,-.4035412462
.76677841e-2,.5438096447,-.3133681129
.46500731e-2,.5786652852,-.2314491088
-.6940303e-3,.6106931544,-.1554227314
-.79395816e-2,.6404097795,-.8380824616e-1
-.168009427e-1,.6681623615,-.1559991871e-1
-.270765397e-1,.6941959125,.4992698844e-1
-.386192986e-1,.7186892075,.1133197562
-.513195414e-1,.7417755595,.1750081494
-.650945113e-1,.7635555625,.2353414613
-.798816779e-1,.7841052225,.2946126749
-.486324992e-1,.3822477170,-.8247422127
-.198193050e-1,.4557943796,-.6395778057
-.81701575e-2,.5084778434,-.5131922622
-.36368790e-2,.5525118436,-.4095252599
-.34292559e-2,.5912879335,-.3187248082
-.62827938e-2,.6263431282,-.2363721186
-.114959695e-1,.6585301430,-.1600276343
-.186322617e-1,.6883795740,-.8817082803e-1
-.273993326e-1,.7162467660,-.1977333047e-1
-.375914022e-1,.7423818470,.4590348940e-1
-.490585851e-1,.7669670060,.1094159190
-.616892262e-1,.7901379610,.1711998035
-.753991131e-1,.8119970730,.2316086530
-.1015702644+.7788730200e-1*I,.3434944909+.9467338124e-1*I,-1.047197552+.2831730159*I
-.707410606e-1,.4194916481,-.8629285039
-.367608762e-1,.4993188789,-.6594915508
-.237312756e-1,.5536803072,-.5285433838
-.184593085e-1,.5986121958,-.4225947317
-.177615953e-1,.6379839985,-.3303851784
-.202520336e-1,.6734805478,-.2470656888
-.251771944e-1,.7060176488,-.1700154084
-.320740676e-1,.7361580988,-.9762260021e-1
-.406351260e-1,.7642757028,-.2880748676e-1
-.506451230e-1,.7906320958,.3719990917e-1
-.619478812e-1,.8154171158,.1009761063
-.744273399e-1,.8387718348,.1629705573
-.9692363515e-1+.1309120003*I,.3784564083+.1591258320*I,-1.047197551+.4653607970*I
-.1158243750+.8949060342e-1*I,.3940059491+.1087773976*I,-1.047197552+.3240247442*I
-.1094815236,.4402395160,-.9540539192
-.5982036525e-1,.5391272458,-.6942953503
-.4415944785e-1,.5966870861,-.5545461334
-.3756635035e-1,.6432248313,-.4444661402
-.3601598625e-1,.6836330475,-.3497726900
-.3788454435e-1,.7198855025,-.2647738789
-.4232144335e-1,.7530160935,-.1865086921
-.4881537465e-1,.7836463275,-.1131986343
-.5703160805e-1,.8121830715,-.4367155894e-1
-.6673816425e-1,.8389083025,.2289816295e-1
-.7776786155e-1,.8640252335,.8712264601e-1
.13630416e-1,.2871539024,.7122632567e-1
.1691981e-2,.3111662453,.1340090609
-.11373814e-1,.3338082633,.1952111432
-.25491546e-1,.3551716326,.2551609088
-.40604352e-1,.3753254719,.3141365533
-.56670086e-1,.3943210115,.3723808813
-.73658752e-1,.4121947101,.4301120867
-.91550832e-1,.4289702935,.4875320502
-.110336251,.4446600077,.5448331315
-.130013866,.4592652416,.6022041252
-.150591411,.4727765956,.6598359178
-.172085885,.4851734064,.7179273189
-.194524438,.4964226716,.7766915793
.286444217e-1,.3096018986,.2974612649e-1
.174835230e-1,.3345593499,.9375362914e-1
.5134227e-2,.3580722848,.1559328017
-.8313173e-2,.3802504544,.2166549630
-.22790399e-1,.4011768533,.2762285967
-.38246182e-1,.4209137982,.3349178711
-.54642937e-1,.4395069749,.3929557587
-.71954551e-1,.4569881252,.4505537972
-.90164951e-1,.4733767856,.5079097588
-.109267272,.4886812993,.5652140799
-.129263513,.5028992390,.6226556517
-.150164630,.5160172842,.6804274856
-.171991105,.5280105425,.7387327271
.419667294e-1,.3313793376,-.1479967397e-1
.316751575e-1,.3573934716,.5069868836e-1
.201179346e-1,.3818691840,.1140686662
.74043623e-2,.4049393348,.1757388775
-.63830775e-2,.4267041801,.2360578147
-.211820678e-1,.4472394681,.2953178961
-.369460731e-1,.4666017640,.3537719482
-.536414213e-1,.4848319957,.4116450538
-.712453745e-1,.5019578019,.4691435293
-.897449105e-1,.5179950130,.5264621091
-.1091360475,.5329484662,.5837901108
-.1294236535,.5468122455,.6413171328
-.1506216855,.5595693865,.6992387787
.534072948e-1,.3523196058,-.6284797945e-1
.440996745e-1,.3795297513,.4482174753e-2
.334271143e-1,.4050807867,.6931188056e-1
.215239481e-1,.4291360006,.1321478592
.84908161e-2,.4518177206,.1933923454
-.55962251e-2,.4732183945,.2533754678
-.206798196e-1,.4934077419,.3123766913
-.367174193e-1,.5124374785,.3706397088
-.536786941e-1,.5303444719,.4283833234
-.715438273e-1,.5471528098,.4858098022
-.903024703e-1,.5628750708,.5431117002
-.1099532158,.5775129648,.6004778371
-.1305035265,.5910574218,.6580989535
.627251773e-1,.3722071070,-.1149777268
.545487642e-1,.4007922538,-.4536740724e-1
.448771427e-1,.4275599487,.2126795555e-1
.338788044e-1,.4527149959,.8554472882e-1
.216783535e-1,.4764088552,.1479389869
.83694379e-2,.4987553545,.2088319919
-.59771313e-2,.5198405686,.2685392026
-.213080910e-1,.5397292388,.3273297147
-.375842226e-1,.5584690360,.3854399471
-.547780156e-1,.5760933990,.4430837570
-.728721505e-1,.5926233810,.5004603230
-.918585955e-1,.6080687450,.5577606986
-.1117381996,.6224284580,.6151736581
.696066795e-1,.3907534478,-.1719773703
.627572372e-1,.4209515504,-.9947756933e-1
.542368923e-1,.4491186422,-.3057923301e-1
.442628085e-1,.4755186893,.3549397893e-1
.329924311e-1,.5003430681,.9932267039e-1
.205427054e-1,.5237339287,.1613590384
.70017169e-2,.5457983400,.2219679041
-.75639340e-2,.5666172568,.2814531786
-.231043040e-1,.5862513848,.3400758018
-.395828996e-1,.6047450828,.3980664943
-.569745421e-1,.6221289568,.4556352893
-.752640003e-1,.6384215198,.5129790650
-.944452013e-1,.6536301548,.5702878927
.736287510e-1,.4075566755,-.2349608745
.683779377e-1,.4396979401,-.1587080148
.612102630e-1,.4695092264,-.8692095610e-1
.524161271e-1,.4973435213,-.1857788387e-1
.422000946e-1,.5234494743,.4705581465e-1
.307112393e-1,.5480082893,.1105338266
.180606460e-1,.5711549920,.1722902436
.43321084e-2,.5929914338,.2326773580
-.104110492e-1,.6135945878,.2919902659
-.261214884e-1,.6330219938,.3504836816
-.427648685e-1,.6513153938,.4083839967
-.603178721e-1,.6685031308,.4658983841
-.787669483e-1,.6846016758,.5232220633
.741928070e-1,.4220259025,-.3055832408
.709393726e-1,.4565950167,-.2242830945
.654065173e-1,.4883934543,-.1487122424
.580029914e-1,.5179180597,-.7744555182e-1
.490049950e-1,.5455045573,-.9509131301e-2
.386081423e-1,.5713907207,.5580212265e-1
.269555101e-1,.5957504622,.1190227092
.141539526e-1,.6187136652,.1805737496
.2841434e-3,.6403783892,.2407985293
-.145929903e-1,.6608186932,.2999857985
-.304320256e-1,.6800897882,.3583857906
-.472002189e-1,.6982314752,.4162218020
-.648756408e-1,.7152704102,.4736989837
.703915423e-1,.4332264777,-.3864859331
.697680906e-1,.4709923814,-.2980417700
.662894662e-1,.5052877727,-.2173285115
.605754568e-1,.5368660137,-.1421913821
.530198065e-1,.5662057092,-.7125669988e-1
.438898943e-1,.5936318605,-.3580271653e-2
.333757343e-1,.6193754350,.6152459227e-1
.216166253e-1,.6436057530,.1245803543
.87167432e-2,.6664494400,.1859999713
-.52452238e-2,.6880021450,.2461210488
-.202098797e-1,.7083360640,.3052283252
-.361330310e-1,.7275049140,.3635692100
-.529829652e-1,.7455472440,.4213650544
.606955245e-1,.4395091291,-.4823719827
.638295702e-1,.4818423355,-.3829653275
.630826383e-1,.5194581482,-.2948675261
.595101411e-1,.5536394345,-.2143976511
.537203755e-1,.5851255931,-.1394408756
.461009613e-1,.6143877820,-.6864449944e-1
.369156571e-1,.6417466040,-.1076496460e-2
.263521688e-1,.6674302190,.6394224284e-1
.145482331e-1,.6916060490,.1269292164
.16069148e-2,.7143993700,.1882940051
-.123939243e-1,.7359048250,.2483718634
-.273955254e-1,.7561938360,.3074458681
-.433542111e-1,.7753194940,.3657622621
.420002818e-1,.4373665541,-.6033526883
.513425823e-1,.4872460058,-.4844934476
.545695633e-1,.5296921758,-.3848064819
.538870946e-1,.5673863452,-.2965279821
.503636362e-1,.6016272395,-.2159310585
.446134627e-1,.6331615220,-.1408801016
.370273838e-1,.6624642320,-.7001148202e-1
.278710456e-1,.6898582620,-.2386836268e-2
.173333574e-1,.7155732380,.6267689955e-1
.55528716e-2,.7397775710,.1256998129
-.73667677e-2,.7625972430,.1870932458
-.213472671e-1,.7841274220,.2471936804
-.363295339e-1,.8044399340,.3062850603
.46151137e-2,.4153649767,-.7829338565
.285390537e-1,.4829686651,-.6148709982
.385880747e-1,.5337071480,-.4937200973
.422249087e-1,.5766515035,-.3927922983
.418249243e-1,.6146890357,-.3037188037
.385155315e-1,.6491901302,-.2225648947
.329377359e-1,.6809339432,-.1471019572
.254965180e-1,.7104127332,-.7591779563e-1
.164658679e-1,.7379595392,-.8045965570e-2
.60399993e-2,.7638104332,.5721403268e-1
-.56389536e-2,.7881381822,.1203936896
-.184648026e-1,.8110718582,.1819120865
-.323573704e-1,.8327089192,.2421110968
-.600548581e-1+.6901157014e-1*I,.3635181932+.8388477362e-1*I,-1.047197551+.2516072663*I
-.180884821e-1,.4530527812,-.8210113775
.102576380e-1,.5260317067,-.6374893877
.217668604e-1,.5785450903,-.5115639962
.262234808e-1,.6224859104,-.4081325392
.263796963e-1,.6611995134,-.3174790733
.234878331e-1,.6962081235,-.2352278193
.182441324e-1,.7283580335,-.1589576549
.110823903e-1,.7581765305,-.8715742174e-1
.22933721e-2,.7860170455,-.1880406741e-1
-.79181292e-2,.8121285075,.4683777989e-1
-.194028856e-1,.8366923045,.1103222949
-.320497049e-1,.8598435945,.1720839017
.46127037e-1,.2848353536,.1314102609
.33106861e-1,.3075328217,.1926716238
.19031990e-1,.3289482892,.2526680292
.3959977e-2,.3491517136,.3116794440
-.12066472e-1,.3681950042,.3699499182
-.29016892e-1,.3861151916,.4276984990
-.46871350e-1,.4029365062,.4851276062
-.65619387e-1,.4186716586,.5424298750
-.85259491e-1,.4333224877,.5997941356
-.105799019,.4468800517,.6574110724
-.127254567,.4593241776,.7154790386
-.149652834,.4706224108,.7742105337
-.173032092,.4807282339,.8338399646
.625852663e-1,.3081453886,.9240001565e-1
.50260447e-1,.3316880750,.1546142748
.36835839e-1,.3538939480,.2153642914
.22380132e-1,.3748465034,.2749596787
.6944920e-2,.3946084531,.3336654010
-.9431944e-2,.4132258074,.3917149895
-.26724118e-1,.4307305870,.4493203571
-.44915325e-1,.4471425774,.5066795003
-.63998506e-1,.4624703557,.5639829502
-.83975471e-1,.4767117253,.6214195730
-.104856981,.4898536045,.6791822293
-.126663301,.5018713604,.7374737792
-.149425273,.5127275052,.7965139564
.775029654e-1,.3309317800,.5068849469e-1
.659459330e-1,.3554077259,.1140587763
.532325374e-1,.3784780901,.1757292254
.394452617e-1,.4002431356,.2360483530
.246464275e-1,.4207786137,.2953085822
.88825727e-2,.4401410918,.3537627425
-.78126306e-2,.4583715001,.4116359238
-.254164420e-1,.4754974794,.4691344427
-.439158350e-1,.4915348625,.5264530359
-.633068310e-1,.5064884874,.5837810214
-.835942950e-1,.5203524404,.6413079971
-.1047921800,.5331097590,.6992295635
-.1269242540,.5447315560,.7577535654
.907266406e-1,.3530649597,.5944246517e-2
.800254909e-1,.3785812457,.7072472920e-1
.680962905e-1,.4026048143,.1335213847
.550390506e-1,.4252572299,.1947345513
.409293571e-1,.4466303708,.2546930363
.258242035e-1,.4667935117,.3136753629
.97658411e-2,.4857980112,.3719245708
-.72156476e-2,.5036804342,.4296590111
-.251006655e-1,.5204646015,.4870806651
-.438790667e-1,.5361628460,.5443819442
-.635496390e-1,.5507766410,.6017516485
-.841200440e-1,.5642966730,.6593806253
-.1056072070,.5767023710,.7174675988
.1020661084,.3743821805,-.4226208918e-1
.923305668e-1,.4010721788,.2425330919e-1
.812748387e-1,.4261574682,.8843451184e-1
.690218787e-1,.4497875004,.1507524239
.556641384e-1,.4720746538,.2115847634
.412715313e-1,.4931039071,.2712444962
.258966103e-1,.5129391419,.3299989633
.95780162e-2,.5316273247,.3880833507
-.76572344e-2,.5492012960,.4457106861
-.257922619e-1,.5656815730,.5030796412
-.448194460e-1,.5810774170,.5603810411
-.647400389e-1,.5953873070,.6178036904
-.855642294e-1,.6085988590,.6755400296
.1112809633,.3946733582,-.9449783832e-1
.1026515323,.4227078542,-.2582197498e-1
.925811729e-1,.4489908760,.4007525162e-1
.812239509e-1,.4737096944,.1037635618
.686944523e-1,.4970035893,.1656878407
.550790380e-1,.5189775342,.2262078593
.404429951e-1,.5397108880,.2856239786
.248352252e-1,.5592630902,.3441946270
.82913621e-2,.5776774552,.4021487787
-.91641564e-2,.5949836872,.4596953075
-.275167665e-1,.6111994882,.5170304116
-.467610257e-1,.6263314732,.5743439012
-.669003397e-1,.6403755052,.6318249424
.1180593724,.4136583509,-.1515327569
.1107220679,.4432634490,-.8012064692e-1
.1017813909,.4709196190,-.1207048288e-1
.914354370e-1,.4968676518,.5333101150e-1
.798289486e-1,.5212834821,.1166236508
.670699593e-1,.5442984265,.1782321607
.532400117e-1,.5660116040,.2385023360
.384007049e-1,.5864978860,.2977246875
.225979980e-1,.6058131390,.3561506966
.58650825e-2,.6239977080,.4140045207
-.117757206e-1,.6410787230,.4714918665
-.303117675e-1,.6570715530,.5288071330
-.497394421e-1,.6719805940,.5861395382
.1219829233,.4309483426,-.2144489686
.1161944806,.4624361101,-.1394890466
.1085761813,.4916996533,-.6869025834e-1
.993918461e-1,.5190596534,-.1120361735e-2
.888292208e-1,.5447443181,.6389988106e-1
.770260701e-1,.5689211014,.1268880549
.640854768e-1,.5917153042,.1882538016
.500853185e-1,.6132215862,.2483324140
.350843650e-1,.6335113842,.3074069989
.191263018e-1,.6526377992,.3657238195
.22424199e-2,.6706388652,.4235034350
-.155466223e-1,.6875396932,.4809492329
-.342297007e-1,.7033538042,.5382543534
.1224638557,.4459751928,-.2848429070
.1185983554,.4798003284,-.2051278024
.1125712280,.5109979696,-.1307321599
.1047514659,.5400166326,-.6036699668e-1
.953917430e-1,.5671634452,.6862501361e-2
.846726594e-1,.5926579318,.7161217173e-1
.727271225e-1,.6166616418,.1343842130
.596547491e-1,.6392956638,.1955777807
.455308343e-1,.6606515178,.2555208499
.304121418e-1,.6807982028,.3144913623
.143407382e-1,.6997868498,.3727319458
-.26534497e-2,.7176538368,.4304606699
-.205509628e-1,.7344228168,.4878793415
.1186209300,.4578484785,-.3652361529
.1172655782,.4947247452,-.2788301808
.1132267998,.5283392584,-.1995578850
.1070586576,.5593654943,-.1254927207
.991194700e-1,.5882389927,-.5538216166e-1
.896555062e-1,.6152590995,.1164716009e-1
.788432369e-1,.6406403165,.7623758876e-1
.668127465e-1,.6645407655,.1388824161
.536616304e-1,.6870790735,.1999747110
.394636686e-1,.7083449225,.2598381972
.242744466e-1,.7284058765,.3187478098
.81350740e-2,.7473119065,.3769440648
-.89253312e-2,.7650984055,.4346435941
.1089948322,.4650210207,-.4600434102
.1111789444,.5061995700,-.3634787116
.1097644663,.5430039659,-.2772358102
.1056800442,.5765629997,-.1980797067
.994746776e-1,.6075439882,-.1241014185
.915039152e-1,.6363791060,-.5405786692e-1
.820123570e-1,.6633656720,.1291873534e-1
.711753955e-1,.6887168760,.7746720900e-1
.591223766e-1,.7125899400,.1400785190
.459503636e-1,.7351028480,.2011441424
.317327391e-1,.7563447960,.2609866863
.165247775e-1,.7763829720,.3198803002
.3673366e-3,.7952670400,.3780649472
.907202570e-1,.4642995866,-.5784617633
.986134147e-1,.5124175795,-.4642586508
.1009730153,.5538094350,-.3671722135
.996830417e-1,.5907651706,-.2805856491
.956946657e-1,.6244409492,-.2011848257
.895675904e-1,.6555171022,-.1270236438
.816632124e-1,.6844329132,-.5683906214e-1
.722296536e-1,.7114899772,.1024848239e-1
.614445797e-1,.7369042512,.7488523466e-1
.494388937e-1,.7608348492,.1375670706
.363107777e-1,.7834011152,.1986888219
.221344523e-1,.8046932632,.2585754431
.69658445e-2,.8247792752,.3175027443
.556249806e-1,.4461296910,-.7484090582
.760274613e-1,.5094529853,-.5925187698
.847263119e-1,.5585503104,-.4757343419
.875726485e-1,.6005338036,-.3771929552
.866251964e-1,.6379058789,-.2896554888
.828997104e-1,.6719012060,-.2095806390
.769861796e-1,.7032369260,-.1349172032
.692624056e-1,.7323722640,-.6434607937e-1
.599863195e-1,.7596207390,.3045184955e-2
.493418975e-1,.7852059770,.6792347237e-1
.374643458e-1,.8092923260,.1307982576
.244549254e-1,.8320028670,.1920736559
.103901554e-1,.8534306130,.2520811087
.77157401e-1,.2813128472,.1893264773
.63139084e-1,.3027970578,.2493850036
.48120866e-1,.3230658701,.3084441401
.32146193e-1,.3421720956,.3667496073
.15246154e-1,.3601535232,.4245215929
-.2558767e-2,.3770350491,.4819632464
-.21257610e-1,.3928299987,.5392675828
-.40848373e-1,.4075408025,.5966234931
-.61337918e-1,.4211591213,.6542214112
-.82742314e-1,.4336654232,.7122591077
-.105087672,.4450279695,.7709481123
-.128411571,.4552010807,.8305213900
-.152765276,.4641224468,.8912430959
.94933388e-1,.3053522068,.1524511174
.81546213e-1,.3276035827,.2132471114
.67125837e-1,.3485990824,.2728784235
.51724389e-1,.3684020728,.3316113447
.35380162e-1,.3870590982,.3896803294
.18119875e-1,.4046026375,.4472979088
-.39857e-4,.4210528855,.5046624578
-.19091661e-1,.4364188037,.5619646675
-.39037035e-1,.4506985727,.6193933670
-.59886417e-1,.4638795026,.6771411793
-.81659726e-1,.4759373849,.7354105012
-.104387403,.4868352144,.7944203408
-.128112132,.4965211113,.8544146939
.1112918256,.3289848685,.1131549679
.985945167e-1,.3520747873,.1748473677
.848222916e-1,.3738581261,.2351838472
.700377267e-1,.3944109493,.2944575154
.542875654e-1,.4137900723,.3529216782
.376056507e-1,.4320366327,.4108017579
.20014870e-1,.4491784510,.4683042895
.1528384e-2,.4652315237,.5256241302
-.17849699e-1,.4802008444,.5829506350
-.38124115e-1,.4940806566,.6404733585
-.59308684e-1,.5068541611,.6983877721
-.81427022e-1,.5184926547,.7569014934
-.104513809,.5289539798,.8162415925
.1261058632,.3521070368,.7118097945e-1
.1141682620,.3761203941,.1339649720
.1011032408,.3987633519,.1951680556
.869862355e-1,.4201276046,.2551186089
.718741206e-1,.4402822848,.3140948574
.558090540e-1,.4592786344,.3723396255
.388210364e-1,.4771531215,.4300711228
.209295949e-1,.4939294813,.4874912392
.21448107e-2,.5096199669,.5447923374
-.175321680e-1,.5242259748,.6021632145
-.381090675e-1,.5377381130,.6597947516
-.596028795e-1,.5501357280,.7178857522
-.820407485e-1,.5613858250,.7766494530
.1392210561,.3745915721,.2620145656e-1
.1281279652,.3996314455,.9032073547e-1
.1158407961,.4232198960,.1525891836
.1024512309,.4454683656,.2133822329
.880285989e-1,.4664611234,.2730112430
.726249950e-1,.4862614934,.3317424204
.562786841e-1,.5049159865,.3898101598
.390163627e-1,.5224570523,.4474269532
.208546226e-1,.5389048590,.5047911496
.18008164e-2,.5542683438,.5620934316
-.181465723e-1,.5685456638,.6195226298
-.389980042e-1,.5817241028,.6772713814
-.607734175e-1,.5937794258,.7355421134
.1504464175,.3962790311,-.2220730153e-1
.1403032306,.4224735303,.4355776295e-1
.1288802350,.4471123984,.1071406151
.1162902557,.4703327783,.1689807098
.1026183634,.4922380739,.2294340525
.879288612e-1,.5129064469,.2887983549
.722698669e-1,.5323963851,.3473301765
.556763664e-1,.5507504150,.4052571920
.381722377e-1,.5679975600,.4627874152
.197715387e-1,.5841549080,.5201165483
.4792320e-3,.5992284910,.5774342233
-.197085650e-1,.6132135900,.6349297293
-.408047770e-1,.6260944950,.6927977133
.1595410847,.4169639821,-.7460382395e-1
.1504823965,.4444767084,-.6787328112e-2
.1400316032,.4702973058,.5842874701e-1
.1283300318,.4945975619,.1215733285
.1154833001,.5175058540,.1830637559
.1015711638,.5391191286,.2432406907
.866538444e-1,.5595105858,.3023910263
.707761976e-1,.5787347478,.3607636899
.539704933e-1,.5968308398,.4185810770
.362582468e-1,.6138250148,.4760477549
.176513691e-1,.6297317488,.5333574941
-.18472275e-2,.6445545828,.5906993475
-.222434824e-1,.6582862978,.6482633290
.1661935689,.4363731381,-.1317436315
.1583969572,.4654199394,-.6132890530e-1
.1490574173,.4925912858,.5939537674e-2
.1383563597,.5181076831,.7072017744e-1
.1264272434,.5421313536,.1335169590
.1133700808,.5647838637,.1947302273
.992604608e-1,.5861570938,.2546887910
.841553764e-1,.6063203188,.3136711790
.680970809e-1,.6253248998,.3719204306
.511156571e-1,.6432074018,.4296549005
.332307030e-1,.6599916468,.4870765705
.144523655e-1,.6756899688,.5443778510
-.52181427e-2,.6903038418,.6017475439
.1699876254,.4541284349,-.1946844647
.1636970705,.4850058747,-.1209044162
.1556539692,.5137530654,-.5101388467e-1
.1460991414,.5406627253,.1584226115e-1
.1352055253,.5659450640,.8029485332e-1
.1231007853,.5897552605,.1428295656
.1098807744,.6122098255,.2038342507
.956179674e-1,.6333968545,.2636289784
.803669288e-1,.6533826695,.3224861062
.641679381e-1,.6722162325,.3806443400
.470494100e-1,.6899320815,.4383190811
.290294661e-1,.7065522445,.4957104634
.101168869e-1,.7220873935,.5530099851
.1703419585,.4696800495,-.2649777970
.1659107672,.5028175789,-.1866982754
.1594215239,.5334535108,-.1133774357
.1512092889,.5619951146,-.4384201263e-1
.1415062407,.5887246101,.2273429307e-1
.1304796939,.6138453692,.8696402054e-1
.1182534383,.6375078622,.1493206967
.1049205327,.6598252022,.2101838355
.905513463e-1,.6808829242,.2698676656
.751987928e-1,.7007453462,.3286404190
.589018062e-1,.7194597932,.3867379069
.416876544e-1,.7370594102,.4443735763
.235734401e-1,.7535649862,.5017463559
.1663927524,.4821725465,-.3450532847
.1643706573,.5182383758,-.2604717656
.1598138038,.5512231606,-.1825071532
.1532212232,.5817334837,-.1094233869
.1449207897,.6101678820,-.4007163545e-1
.1351402914,.6368032340,.2635976081e-1
.1240441668,.6618394210,.9047402467e-1
.1117542199,.6854244960,.1527384669
.983620701e-1,.7076698230,.2135283321
.839369982e-1,.7286596160,.2731548560
.685310642e-1,.7484571530,.3318841487
.521825011e-1,.7671089080,.3899505420
.349179789e-1,.7846472990,.4475664868
.1567302151,.4901376688,-.4391066880
.1580677350,.5302871677,-.3450370027
.1560451126,.5663523554,-.2604569154
.1514878465,.5993366384,-.1824933350
.1448949259,.6298465485,-.1094103465
.1365942023,.6582805935,-.4005919721e-1
.1268134492,.6849156365,.2637172420e-1
.1157170957,.7099515455,.9048560856e-1
.1034269389,.7335363635,.1527497471
.900345936e-1,.7557814545,.2135393731
.756093378e-1,.7767710235,.2731657087
.602032276e-1,.7965683465,.3318948588
.438544941e-1,.8152198945,.3899611512
.1386595777,.4906157054,-.5556610109
.1453114025,.5372248355,-.4453959487
.1468989592,.5776782583,-.3505932595
.1450572410,.6139633390,-.2655213195
.1406412723,.6471193710,-.1872035505
.1341645304,.6777704980,-.1138539502
.1259629537,.7063250590,-.4429625707e-1
.1162692589,.7330659230,.2229760738e-1
.1052511085,.7581968880,.8654132557e-1
.930325351e-1,.7818687180,.1489091761
.797067721e-1,.8041947400,.2097811953
.653443205e-1,.8252606490,.2694719769
.499981974e-1,.8451308880,.3282500079
.106836114,.2767137625,.2453258890
.91884519e-1,.2970635582,.3044449983
.75973926e-1,.3162476734,.3627946073
.59136201e-1,.3343048439,.4205963532
.41392508e-1,.3512607944,.4780543134
.22754435e-1,.3671296104,.5353619950
.3224585e-2,.3819144558,.5927083904
-.17203292e-1,.3956077323,.6502836476
-.38544619e-1,.4081906955,.7082848425
-.60824784e-1,.4196324854,.7669223430
-.84080524e-1,.4298884456,.8264273715
