-.2414985328,.6380543247,-.4610580116
-.1433893293,.6643001952,-.2673288948
-.607940307e-1,.6754345660,-.1122320645
.118964282e-1,.6777397210,.2191771477e-1
.772599370e-1,.6739529328,.1428155816
.1367541009,.6655439170,.2546766876
.1912962210,.6533920335,.3601468644
.2414985330,.6380543237,.4610580138
-.2315870992,.6470197395,-.4923436887
-.1244870596,.6775350512,-.2789949274
-.359864397e-1,.6898530794,-.1125887789
.411679457e-1,.6920959603,.2978948520e-1
.1100949611,.6875550339,.1574138008
.1725008955,.6779314756,.2751908462
.2294358670,.6642158507,.3861426867
.2815870980,.6470197400,.4923436871
-.2214101614,.6556624329,-.5235987749
-.1049674627,.6908451286,-.2895132251
-.106278013e-1,.7043152091,-.1119238986
.708504095e-1,.7064176019,.3842070628e-1
.1431803402,.7010441756,.1725140673
.2083304181,.6901337887,.2959838725
.2674866384,.6747860851,.4122375766
-.1759679533,.6779728624,-.4806332210
-.620586310e-1,.7087894854,-.2552564426
.312684728e-1,.7198942309,-.8065094677e-1
.1121437830,.7202396003,.6848091139e-1
.1840165072,.7133709804,.2022086863
.2487552834,.7010892069,.3258321189
.3074961297,.6844217463,.4426232598
-.1237315629,.7017041727,-.4248290626
-.143494633e-1,.7270178773,-.2122480513
.765827593e-1,.7352116030,-.4315334045e-1
.1558051402,.7335478073,.1029878761
.2263772847,.7250983101,.2349723066
.2900056459,.7114668074,.3576075510
.3477414110,.6935776529,.4739413183
-.728434689e-1,.7237966041,-.3730670463
.327074798e-1,.7444534774,-.1708540949
.1214551791,.7499918772,-.6530422667e-2
.1991178410,.7464322162,.1369700023
.2684370864,.7364597982,.2674201168
.3309796435,.7215084818,.3892146528
.3877205949,.7024101134,.5052106885
-.2414985328,.6380543243,-.4610580124
-.1433893292,.6643001948,-.2673288956
-.607940307e-1,.6754345660,-.1122320645
.118964282e-1,.6777397211,.2191771501e-1
.772599371e-1,.6739529327,.1428155812
.1367541009,.6655439169,.2546766874
.1912962210,.6533920335,.3601468644
.2414985330,.6380543237,.4610580139
-.2011432901,.6287647576,-.4297108998
-.1116922126,.6511214638,-.2545588759
-.350524178e-1,.6610591045,-.1108572996
.330419186e-1,.6633556516,.1481560678e-1
.946834602e-1,.6602455458,.1287282058
.1510968347,.6529765872,.2344410877
.2030710220,.6423166603,.3342362887
.2511432910,.6287647580,.4297109000
-.1914985334,.6380543234,-.4610580152
-.933893299e-1,.6643001947,-.2673288971
-.107940308e-1,.6754345655,-.1122320665
.618964275e-1,.6777397212,.2191771401e-1
.1272599367,.6739529327,.1428155804
.1867541010,.6655439170,.2546766869
.2412962210,.6533920334,.3601468640
-.1815870984,.6470197397,-.4923436874
-.744870591e-1,.6775350525,-.2789949238
.140135606e-1,.6898530802,-.1125887763
.911679458e-1,.6920959601,.2978948497e-1
.1600949613,.6875550337,.1574138006
.2225008955,.6779314756,.2751908464
.2794358670,.6642158507,.3861426867
.3315870980,.6470197400,.4923436871
-.1714101617,.6556624328,-.5235987755
-.549674629e-1,.6908451291,-.2895132243
.393721984e-1,.7043152088,-.1119238997
.1208504093,.7064176023,.3842070697e-1
.1931803401,.7010441756,.1725140670
.2583304177,.6901337888,.2959838717
.3174866384,.6747860852,.4122375763
.3714101610,.6556624328,.5235987753
-.1259679533,.6779728621,-.4806332217
-.120586310e-1,.7087894854,-.2552564426
.812684728e-1,.7198942309,-.8065094677e-1
.1621437832,.7202396006,.6848091252e-1
.2340165070,.7133709807,.2022086869
.2987552834,.7010892069,.3258321189
.3574961298,.6844217463,.4426232595
-.737315630e-1,.7017041720,-.4248290641
.356505367e-1,.7270178773,-.2122480513
.1265827596,.7352116031,-.4315333972e-1
.2058051402,.7335478073,.1029878761
.2763772848,.7250983100,.2349723063
.3400056459,.7114668074,.3576075510
.3977414111,.6935776529,.4739413191
-.2011432900,.6287647575,-.4297108999
-.1116922124,.6511214639,-.2545588753
-.350524177e-1,.6610591045,-.1108572991
.330419186e-1,.6633556515,.1481560703e-1
.946834603e-1,.6602455458,.1287282063
.1510968348,.6529765869,.2344410876
.2030710220,.6423166602,.3342362889
.2511432910,.6287647578,.4297109004
-.1605193970,.6191486428,-.3982709408
-.794122064e-1,.6379794142,-.2407253019
-.87630639e-2,.6467249742,-.1084676588
.546109896e-1,.6489499590,.8494606664e-2
.1123743142,.6464404152,.1151622318
.1655363015,.6402348769,.2144852134
.2147635310,.6309913799,.3083977348
-.1511432907,.6287647570,-.4297109020
-.616922127e-1,.6511214639,-.2545588757
.149475821e-1,.6610591045,-.1108572992
.830419185e-1,.6633556516,.1481560702e-1
.1446834603,.6602455456,.1287282057
.2010968348,.6529765870,.2344410877
.2530710220,.6423166602,.3342362891
-.1414985322,.6380543246,-.4610580111
-.433893290e-1,.6643001955,-.2673288938
.392059698e-1,.6754345662,-.1122320635
.1118964283,.6777397209,.2191771454e-1
.1772599371,.6739529329,.1428155819
.2367541014,.6655439170,.2546766880
.2912962210,.6533920333,.3601468640
-.1315870991,.6470197399,-.4923436875
-.244870595e-1,.6775350512,-.2789949274
.640135603e-1,.6898530794,-.1125887789
.1411679457,.6920959603,.2978948520e-1
.2100949612,.6875550338,.1574138008
.2725008955,.6779314756,.2751908464
.3294358670,.6642158507,.3861426867
-.1214101614,.6556624332,-.5235987746
-.49674627e-2,.6908451288,-.2895132249
.893721985e-1,.7043152087,-.1119238997
.1708504095,.7064176020,.3842070651e-1
.2431803400,.7010441757,.1725140675
.3083304182,.6901337888,.2959838723
.3674866385,.6747860851,.4122375763
-.759679533e-1,.6779728621,-.4806332217
.379413689e-1,.7087894856,-.2552564422
.1312684730,.7198942312,-.8065094544e-1
.2121437832,.7202396006,.6848091252e-1
.2840165072,.7133709804,.2022086862
.3487552834,.7010892069,.3258321189
.4074961299,.6844217463,.4426232606
-.1605193971,.6191486419,-.3982709431
-.794122064e-1,.6379794144,-.2407253012
-.87630639e-2,.6467249742,-.1084676588
.546109896e-1,.6489499590,.8494606664e-2
.1123743142,.6464404152,.1151622318
.1655363015,.6402348767,.2144852134
.2147635310,.6309913799,.3083977352
-.1196240467,.6092025643,-.3667059042
-.465642101e-1,.6248543739,-.2258647797
.180730528e-1,.6324293165,-.1050657368
.766107982e-1,.6345282688,.2967465358e-2
.1303419599,.6325449642,.1021300841
.1800801950,.6273241276,.1948118132
.2263769920,.6194174782,.2826185485
-.1105193973,.6191486434,-.3982709397
-.294122066e-1,.6379794146,-.2407253012
.412369359e-1,.6467249744,-.1084676588
.1046109893,.6489499590,.8494605664e-2
.1623743143,.6464404149,.1151622307
.2155363016,.6402348768,.2144852132
.2647635310,.6309913799,.3083977345
.3105193980,.6191486417,.3982709439
-.1011432899,.6287647577,-.4297108995
-.116922124e-1,.6511214638,-.2545588757
.649475824e-1,.6610591046,-.1108572988
.1330419184,.6633556514,.1481560603e-1
.1946834602,.6602455457,.1287282065
.2510968348,.6529765870,.2344410877
.3030710220,.6423166602,.3342362889
.3511432910,.6287647577,.4297109003
-.914985332e-1,.6380543244,-.4610580123
.66106702e-2,.6643001947,-.2673288971
.892059692e-1,.6754345661,-.1122320648
.1618964276,.6777397213,.2191771425e-1
.2272599368,.6739529326,.1428155799
.2867541010,.6655439170,.2546766869
.3412962210,.6533920333,.3601468635
.3914985330,.6380543240,.4610580134
-.815870981e-1,.6470197406,-.4923436848
.255129411e-1,.6775350521,-.2789949245
.1140135607,.6898530801,-.1125887761
.1911679458,.6920959601,.2978948497e-1
.2600949613,.6875550337,.1574138006
.3225008955,.6779314756,.2751908464
.3794358670,.6642158507,.3861426867
.4315870980,.6470197400,.4923436871
-.714101625e-1,.6556624330,-.5235987759
.450325365e-1,.6908451290,-.2895132255
.1393721982,.7043152089,-.1119238996
.2208504092,.7064176025,.3842070719e-1
.2931803401,.7010441756,.1725140670
.3583304183,.6901337887,.2959838722
.4174866384,.6747860851,.4122375766
-.1196240463,.6092025643,-.3667059034
-.465642093e-1,.6248543734,-.2258647798
.180730532e-1,.6324293170,-.1050657350
.766107983e-1,.6345282687,.2967465359e-2
.1303419602,.6325449641,.1021300839
.1800801950,.6273241275,.1948118132
.2263769920,.6194174782,.2826185482
.2696240470,.6092025642,.3667059039
-.784535578e-1,.5989220519,-.3349823889
-.131613853e-1,.6117265187,-.2100096346
.454555514e-1,.6181681493,-.1006533003
.990491653e-1,.6200956052,-.1751656896e-2
.1485966289,.6185665125,.8964620164e-1
.1947367880,.6142496705,.1754253472
.2379146800,.6075958980,.2568866382
.2784535590,.5989220522,.3349823886
-.696240468e-1,.6092025644,-.3667059041
.34357900e-2,.6248543739,-.2258647800
.680730528e-1,.6324293167,-.1050657366
.1266107980,.6345282694,.2967466352e-2
.1803419601,.6325449642,.1021300837
.2300801950,.6273241275,.1948118126
.2763769920,.6194174783,.2826185480
-.605193969e-1,.6191486417,-.3982709433
.205877941e-1,.6379794147,-.2407252998
.912369363e-1,.6467249743,-.1084676585
.1546109898,.6489499588,.8494606170e-2
.2123743142,.6464404153,.1151622323
.2655363015,.6402348769,.2144852134
.3147635310,.6309913799,.3083977345
.3605193980,.6191486417,.3982709438
-.511432908e-1,.6287647569,-.4297109022
.383077872e-1,.6511214643,-.2545588750
.1149475820,.6610591046,-.1108572992
.1830419181,.6633556516,.1481560626e-1
.2446834602,.6602455455,.1287282054
.3010968346,.6529765871,.2344410881
.3530710220,.6423166602,.3342362891
.4011432910,.6287647578,.4297109004
-.414985323e-1,.6380543247,-.4610580108
.566106708e-1,.6643001957,-.2673288938
.1392059697,.6754345661,-.1122320638
.2118964282,.6777397210,.2191771454e-1
.2772599369,.6739529328,.1428155806
.3367541011,.6655439169,.2546766871
.3912962210,.6533920334,.3601468640
-.315870981e-1,.6470197406,-.4923436850
.755129404e-1,.6775350510,-.2789949281
.1640135601,.6898530800,-.1125887777
.2411679458,.6920959600,.2978948445e-1
.3100949612,.6875550339,.1574138004
.3725008957,.6779314757,.2751908460
.4294358670,.6642158508,.3861426866
-.784535580e-1,.5989220523,-.3349823881
-.131613854e-1,.6117265184,-.2100096352
.454555512e-1,.6181681494,-.1006532998
.990491652e-1,.6200956051,-.1751656896e-2
.1485966289,.6185665125,.8964620207e-1
.1947367880,.6142496705,.1754253474
.2379146800,.6075958979,.2568866384
.2784535590,.5989220523,.3349823892
-.370033195e-1,.5883014987,-.3030655135
.207849705e-1,.5985759021,-.1931875079
.733847742e-1,.6039363758,-.9523100296e-1
.1219346692,.6056563586,-.5647075017e-2
.1671494278,.6045122839,.7772719068e-1
.2095150330,.6010168663,.1563321558
.2493799500,.5955272546,.2311904904
.2870033200,.5883014985,.3030655142
-.284535585e-1,.5989220524,-.3349823884
.368386145e-1,.6117265180,-.2100096368
.954555512e-1,.6181681492,-.1006533011
.1490491649,.6200956053,-.1751657146e-2
.1985966287,.6185665127,.8964620164e-1
.2447367880,.6142496706,.1754253472
.2879146800,.6075958980,.2568866382
.3284535590,.5989220522,.3349823886
-.196240463e-1,.6092025652,-.3667059017
.534357905e-1,.6248543746,-.2258647774
.1180730532,.6324293171,-.1050657349
.1766107984,.6345282688,.2967465359e-2
.2303419605,.6325449645,.1021300852
.2800801960,.6273241274,.1948118127
.3263769920,.6194174783,.2826185480
-.105193979e-1,.6191486415,-.3982709452
.705877933e-1,.6379794138,-.2407253030
.1412369357,.6467249753,-.1084676569
.2046109894,.6489499595,.8494607401e-2
.2623743142,.6464404150,.1151622307
.3155363015,.6402348768,.2144852131
.3647635310,.6309913797,.3083977339
.4105193980,.6191486417,.3982709438
-.11432908e-2,.6287647569,-.4297109022
.883077872e-1,.6511214640,-.2545588757
.1649475820,.6610591046,-.1108572992
.2330419185,.6633556516,.1481560677e-1
.2946834602,.6602455457,.1287282057
.3510968346,.6529765871,.2344410881
.4030710220,.6423166602,.3342362891
.4511432910,.6287647578,.4297109005
.85014667e-2,.6380543232,-.4610580152
.1066106706,.6643001949,-.2673288956
.1892059693,.6754345661,-.1122320645
.2618964276,.6777397212,.2191771451e-1
.3272599370,.6739529328,.1428155816
.3867541010,.6655439169,.2546766874
.4412962210,.6533920334,.3601468644
-.370033197e-1,.5883015007,-.3030655095
.207849704e-1,.5985759021,-.1931875082
.733847742e-1,.6039363759,-.9523100291e-1
.1219346693,.6056563583,-.5647076274e-2
.1671494278,.6045122841,.7772719064e-1
.2095150330,.6010168662,.1563321552
.2493799500,.5955272547,.2311904905
.2870033200,.5883014986,.3030655137
.47322893e-2,.5773340742,-.2709185158
.552655497e-1,.5853824484,-.1754209729
.1018619354,.5897277886,-.8879804757e-1
.1452767549,.5912142549,-.8701414047e-2
.1860124590,.5903894120,.6639200534e-1
.2244246850,.5876311492,.1375406463
.2607762980,.5832118539,.2055191817
.2952677110,.5773340731,.2709185205
.129966801e-1,.5883014999,-.3030655116
.707849703e-1,.5985759016,-.1931875098
.1233847740,.6039363759,-.9523100350e-1
.1719346691,.6056563584,-.5647076274e-2
.2171494277,.6045122843,.7772719102e-1
.2595150330,.6010168662,.1563321552
.2993799500,.5955272544,.2311904898
.215464420e-1,.5989220524,-.3349823881
.868386151e-1,.6117265189,-.2100096338
.1454555514,.6181681493,-.1006533003
.1990491654,.6200956048,-.1751658150e-2
.2485966288,.6185665126,.8964620164e-1
.2947367880,.6142496706,.1754253472
.3379146800,.6075958980,.2568866383
.3784535590,.5989220523,.3349823887
.303759532e-1,.6092025642,-.3667059045
.1034357899,.6248543740,-.2258647800
.1680730528,.6324293167,-.1050657366
.2266107981,.6345282690,.2967465355e-2
.2803419601,.6325449642,.1021300837
.3300801950,.6273241275,.1948118127
.3763769920,.6194174783,.2826185480
.394806032e-1,.6191486422,-.3982709421
.1205877937,.6379794144,-.2407253009
.1912369363,.6467249744,-.1084676579
.2546109898,.6489499590,.8494606920e-2
.3123743142,.6464404152,.1151622319
.3655363015,.6402348768,.2144852136
.4147635310,.6309913797,.3083977345
.4605193980,.6191486416,.3982709442
.488567086e-1,.6287647571,-.4297109026
.1383077871,.6511214642,-.2545588755
.2149475819,.6610591049,-.1108572986
.2830419181,.6633556516,.1481560602e-1
.3446834602,.6602455457,.1287282057
.4010968348,.6529765869,.2344410876
.4530710220,.6423166603,.3342362896
.47322894e-2,.5773340734,-.2709185176
.552655498e-1,.5853824480,-.1754209739
.1018619354,.5897277886,-.8879804757e-1
.1452767549,.5912142549,-.8701414047e-2
.1860124590,.5903894120,.6639200534e-1
.2244246850,.5876311492,.1375406463
.2607762980,.5832118538,.2055191814
.2952677110,.5773340730,.2709185201
.467599907e-1,.5660116043,-.2385023317
.902731610e-1,.5721258948,-.1567271797
.1308892866,.5755350617,-.8135179214e-1
.1690858598,.5767723092,-.1089542179e-1
.2051989570,.5762049429,.5566217057e-1
.2394764320,.5740980712,.1190615283
.2721074280,.5706497120,.1798624451
.3032400100,.5660116036,.2385023349
.547322892e-1,.5773340722,-.2709185208
.1052655491,.5853824480,-.1754209749
.1518619354,.5897277883,-.8879804832e-1
.1952767545,.5912142547,-.8701415546e-2
.2360124590,.5903894118,.6639200392e-1
.2744246850,.5876311492,.1375406463
.3107762980,.5832118539,.2055191817
.3452677110,.5773340728,.2709185202
.629966811e-1,.5883014990,-.3030655122
.1207849708,.5985759024,-.1931875070
.1733847742,.6039363761,-.9523100241e-1
.2219346695,.6056563590,-.5647073761e-2
.2671494279,.6045122841,.7772719091e-1
.3095150330,.6010168664,.1563321559
.3493799500,.5955272544,.2311904896
.715464412e-1,.5989220519,-.3349823899
.1368386144,.6117265187,-.2100096348
.1954555512,.6181681492,-.1006533006
.2490491650,.6200956051,-.1751657146e-2
.2985966287,.6185665127,.8964620226e-1
.3447367880,.6142496705,.1754253474
.3879146790,.6075958980,.2568866389
.4284535590,.5989220521,.3349823890
.803759537e-1,.6092025641,-.3667059039
.1534357906,.6248543741,-.2258647785
.2180730533,.6324293172,-.1050657345
.2766107983,.6345282687,.2967465359e-2
.3303419605,.6325449639,.1021300843
.3800801950,.6273241275,.1948118132
.4263769920,.6194174782,.2826185482
.4696240470,.6092025642,.3667059039
.894806020e-1,.6191486414,-.3982709456
.1705877930,.6379794147,-.2407253014
.2412369356,.6467249753,-.1084676569
.3046109896,.6489499588,.8494605672e-2
.3623743142,.6464404150,.1151622307
.4155363016,.6402348768,.2144852131
.4647635310,.6309913799,.3083977348
.467599905e-1,.5660116052,-.2385023299
.902731607e-1,.5721258958,-.1567271774
.1308892863,.5755350619,-.8135179183e-1
.1690858598,.5767723089,-.1089542281e-1
.2051989570,.5762049427,.5566217011e-1
.2394764320,.5740980714,.1190615283
.2721074280,.5706497116,.1798624434
.3032400100,.5660116036,.2385023349
.890877277e-1,.5543244360,-.2057750686
.1258028649,.5587857045,-.1371174621
.1604703078,.5613497268,-.7288731219e-1
.1933735690,.5623327779,-.1220771394e-1
.2247234470,.5619658341,.4556204362e-1
.2546820570,.5604233572,.1009080992
.2833773310,.5578405738,.1542107255
.967599901e-1,.5660116044,-.2385023325
.1402731603,.5721258952,-.1567271797
.1808892862,.5755350615,-.8135179346e-1
.2190858596,.5767723090,-.1089542306e-1
.2551989570,.5762049428,.5566217009e-1
.2894764320,.5740980713,.1190615283
.3221074280,.5706497119,.1798624451
.1047322890,.5773340736,-.2709185176
.1552655492,.5853824480,-.1754209749
.2018619352,.5897277891,-.8879804629e-1
.2452767546,.5912142543,-.8701416568e-2
.2860124590,.5903894120,.6639200509e-1
.3244246850,.5876311492,.1375406464
.3607762980,.5832118539,.2055191817
.3952677110,.5773340728,.2709185202
.1129966801,.5883014986,-.3030655145
.1707849701,.5985759022,-.1931875084
.2233847739,.6039363762,-.9523100289e-1
.2719346688,.6056563593,-.5647074003e-2
.3171494277,.6045122841,.7772719064e-1
.3595150330,.6010168667,.1563321563
.3993799500,.5955272544,.2311904898
.1215464423,.5989220525,-.3349823873
.1868386154,.6117265188,-.2100096336
.2454555518,.6181681495,-.1006532987
.2990491653,.6200956056,-.1751655642e-2
.3485966289,.6185665126,.8964620201e-1
.3947367880,.6142496706,.1754253471
.4379146800,.6075958979,.2568866379
.4784535590,.5989220523,.3349823887
.1303759526,.6092025637,-.3667059063
.2034357897,.6248543738,-.2258647804
.2680730523,.6324293175,-.1050657351
.3266107980,.6345282689,.2967465108e-2
.3803419601,.6325449640,.1021300833
.4300801950,.6273241273,.1948118117
.4763769920,.6194174783,.2826185483
.5196240470,.6092025643,.3667059043
.890877277e-1,.5543244360,-.2057750686
.1258028647,.5587857052,-.1371174605
.1604703078,.5613497268,-.7288731219e-1
.1933735690,.5623327779,-.1220771394e-1
.2247234470,.5619658345,.4556204456e-1
.2546820570,.5604233574,.1009080999
.2833773310,.5578405738,.1542107255
.1317248139,.5422612470,-.1726914314
.1618521315,.5453409273,-.1165969190
.1906099360,.5471621310,-.6339687593e-1
.2181527940,.5478970983,-.1261446152e-1
.2446019290,.5476789476,.3611912063e-1
.2700546190,.5466129587,.8309657817e-1
.2945903800,.5447839418,.1285553021
.1390877265,.5543244353,-.2057750716
.1758028639,.5587857045,-.1371174637
.2104703072,.5613497270,-.7288731244e-1
.2433735680,.5623327776,-.1220771571e-1
.2747234460,.5619658342,.4556204230e-1
.3046820560,.5604233571,.1009080986
.3333773300,.5578405735,.1542107239
.3609122730,.5543244353,.2057750717
.1467599915,.5660116041,-.2385023312
.1902731611,.5721258946,-.1567271797
.2308892865,.5755350621,-.8135179075e-1
.2690858600,.5767723087,-.1089542257e-1
.3051989580,.5762049425,.5566217086e-1
.3394764320,.5740980712,.1190615288
.3721074280,.5706497118,.1798624453
.4032400100,.5660116037,.2385023360
.1547322893,.5773340723,-.2709185203
.2052655492,.5853824477,-.1754209752
.2518619354,.5897277884,-.8879804789e-1
.2952767543,.5912142550,-.8701414292e-2
.3360124590,.5903894115,.6639200446e-1
.3744246850,.5876311491,.1375406467
.4107762980,.5832118539,.2055191824
.4452677110,.5773340728,.2709185207
.1629966813,.5883014991,-.3030655116
.2207849711,.5985759024,-.1931875061
.2733847746,.6039363753,-.9523100367e-1
.3219346695,.6056563584,-.5647075271e-2
.3671494280,.6045122839,.7772719095e-1
.4095150330,.6010168661,.1563321556
.4493799500,.5955272546,.2311904904
.4870033200,.5883014986,.3030655141
.1715464401,.5989220518,-.3349823917
.2368386135,.6117265185,-.2100096368
.2954555506,.6181681497,-.1006533001
.3490491644,.6200956051,-.1751658396e-2
.3985966283,.6185665131,.8964620266e-1
.4447367870,.6142496706,.1754253472
.4879146790,.6075958980,.2568866384
.5284535590,.5989220523,.3349823892
.1317248141,.5422612463,-.1726914331
.1618521314,.5453409277,-.1165969182
.1906099350,.5471621318,-.6339687428e-1
.2181527950,.5478970974,-.1261446381e-1
.2446019290,.5476789481,.3611912204e-1
.2700546190,.5466129588,.8309657838e-1
.2945903800,.5447839415,.1285553013
.1746821185,.5298088293,-.1392019988
.1984210280,.5317700216,-.9516391037e-1
.2213148240,.5329613778,-.5286932383e-1
.2434380060,.5334658136,-.1208899670e-1
.2648521050,.5333510322,.2736441273e-1
.2856086770,.5326731197,.6564652135e-1
.3057514480,.5314791053,.1028884363
.1817248141,.5422612476,-.1726914294
.2118521316,.5453409278,-.1165969176
.2406099360,.5471621310,-.6339687593e-1
.2681527950,.5478970974,-.1261446381e-1
.2946019290,.5476789475,.3611912040e-1
.3200546180,.5466129591,.8309657894e-1
.3445903790,.5447839419,.1285553022
.3682751860,.5422612475,.1726914322
.1890877283,.5543244363,-.2057750663
.2258028649,.5587857053,-.1371174598
.2604703078,.5613497270,-.7288731144e-1
.2933735680,.5623327776,-.1220771496e-1
.3247234470,.5619658341,.4556204333e-1
.3546820570,.5604233570,.1009080990
.3833773300,.5578405736,.1542107245
.4109122730,.5543244353,.2057750717
.1967599896,.5660116039,-.2385023343
.2402731598,.5721258952,-.1567271801
.2808892859,.5755350619,-.8135179206e-1
.3190858592,.5767723086,-.1089542432e-1
.3551989570,.5762049430,.5566217098e-1
.3894764320,.5740980712,.1190615283
.4221074280,.5706497114,.1798624437
.4532400100,.5660116035,.2385023354
.2047322889,.5773340729,-.2709185194
.2552655491,.5853824473,-.1754209760
.3018619351,.5897277885,-.8879804784e-1
.3452767542,.5912142548,-.8701415046e-2
.3860124590,.5903894118,.6639200477e-1
.4244246840,.5876311490,.1375406453
.4607762980,.5832118540,.2055191821
.4952677110,.5773340731,.2709185210
.2129966799,.5883014986,-.3030655145
.2707849699,.5985759025,-.1931875078
.3233847738,.6039363757,-.9523100400e-1
.3719346689,.6056563585,-.5647076272e-2
.4171494275,.6045122843,.7772719075e-1
.4595150330,.6010168666,.1563321560
.4993799500,.5955272547,.2311904902
.5370033200,.5883014986,.3030655137
.1746821185,.5298088295,-.1392019985
.1984210280,.5317700214,-.9516391143e-1
.2213148240,.5329613779,-.5286932407e-1
.2434380060,.5334658139,-.1208899670e-1
.2648521050,.5333510323,.2736441248e-1
.2856086770,.5326731198,.6564652110e-1
.3057514480,.5314791057,.1028884366
.2179722950,.5169517994,-.1052523870
.2355124520,.5180506149,-.7280946800e-1
.2525936650,.5187352231,-.4128935823e-1
.2692455030,.5190384860,-.1060130733e-1
.2854936410,.5189887039,.1933290583e-1
.3013605540,.5186104440,.4858131634e-1
.3168660530,.5179251798,.7720357785e-1
.2246821185,.5298088295,-.1392019985
.2484210280,.5317700214,-.9516391143e-1
.2713148240,.5329613780,-.5286932379e-1
.2934380060,.5334658139,-.1208899670e-1
.3148521050,.5333510320,.2736441175e-1
.3356086770,.5326731199,.6564652202e-1
.3557514480,.5314791054,.1028884358
.2317248149,.5422612471,-.1726914301
.2618521320,.5453409283,-.1165969158
.2906099360,.5471621323,-.6339687295e-1
.3181527950,.5478970973,-.1261446432e-1
.3446019300,.5476789475,.3611911992e-1
.3700546190,.5466129587,.8309657765e-1
.3945903790,.5447839420,.1285553017
.4182751860,.5422612475,.1726914315
.2390877263,.5543244369,-.2057750683
.2758028638,.5587857044,-.1371174644
.3104703070,.5613497270,-.7288731290e-1
.3433735680,.5623327773,-.1220771697e-1
.3747234460,.5619658344,.4556204230e-1
.4046820560,.5604233575,.1009080991
.4333773300,.5578405735,.1542107234
.4609122730,.5543244354,.2057750712
.2467599906,.5660116044,-.2385023317
.2902731609,.5721258948,-.1567271797
.3308892866,.5755350616,-.8135179270e-1
.3690858599,.5767723088,-.1089542307e-1
.4051989570,.5762049429,.5566217057e-1
.4394764320,.5740980712,.1190615281
.4721074280,.5706497117,.1798624443
.5032400100,.5660116037,.2385023352
.2547322886,.5773340729,-.2709185202
.3052655488,.5853824476,-.1754209762
.3518619350,.5897277884,-.8879804884e-1
.3952767541,.5912142549,-.8701415546e-2
.4360124590,.5903894120,.6639200454e-1
.4744246840,.5876311491,.1375406453
.5107762980,.5832118540,.2055191820
.5452677110,.5773340729,.2709185203
.2179722950,.5169517996,-.1052523872
.2355124510,.5180506150,-.7280946821e-1
.2525936640,.5187352235,-.4128935769e-1
.2692455030,.5190384862,-.1060130707e-1
.2854936400,.5189887043,.1933290603e-1
.3013605540,.5186104441,.4858131634e-1
.3168660530,.5179251798,.7720357785e-1
.2616100700,.5036722570,-.7078217866e-1
.2731324140,.5041592212,-.4951650844e-1
.2844575640,.5044699494,-.2863665983e-1
.2955937550,.5046135847,-.8117408666e-2
.3065484950,.5045984143,.1206412740e-1
.3173286520,.5044319778,.3192879144e-1
.3279405310,.5041211587,.5149564706e-1
.2679722940,.5169518001,-.1052523875
.2855124500,.5180506147,-.7280947108e-1
.3025936640,.5187352231,-.4128936023e-1
.3192455020,.5190384862,-.1060130882e-1
.3354936400,.5189887050,.1933290674e-1
.3513605530,.5186104446,.4858131719e-1
.3668660520,.5179251799,.7720357783e-1
.2746821186,.5298088293,-.1392019991
.2984210280,.5317700214,-.9516391143e-1
.3213148240,.5329613779,-.5286932407e-1
.3434380060,.5334658136,-.1208899720e-1
.3648521050,.5333510322,.2736441248e-1
.3856086770,.5326731196,.6564652137e-1
.4057514480,.5314791056,.1028884364
.2817248139,.5422612470,-.1726914314
.3118521312,.5453409280,-.1165969175
.3406099350,.5471621318,-.6339687453e-1
.3681527940,.5478970983,-.1261446178e-1
.3946019290,.5476789481,.3611912204e-1
.4200546190,.5466129587,.8309657811e-1
.4445903800,.5447839418,.1285553021
.2890877276,.5543244356,-.2057750692
.3258028648,.5587857043,-.1371174623
.3604703080,.5613497272,-.7288731060e-1
.3933735680,.5623327778,-.1220771394e-1
.4247234470,.5619658342,.4556204409e-1
.4546820570,.5604233571,.1009080995
.4833773300,.5578405737,.1542107251
.2967599891,.5660116032,-.2385023372
.3402731595,.5721258947,-.1567271824
.3808892853,.5755350619,-.8135179390e-1
.4190858589,.5767723088,-.1089542456e-1
.4551989570,.5762049429,.5566216958e-1
.4894764320,.5740980713,.1190615282
.5221074280,.5706497116,.1798624434
.5532400100,.5660116035,.2385023349
.2616100700,.5036722568,-.7078217925e-1
.2731324140,.5041592212,-.4951650844e-1
.2844575640,.5044699499,-.2863665852e-1
.2955937550,.5046135849,-.8117408156e-2
.3065484950,.5045984144,.1206412764e-1
.3173286520,.5044319778,.3192879144e-1
.3279405310,.5041211586,.5149564684e-1
.3056126130,.4899493312,-.3572362703e-1
.3112904330,.4900708636,-.2525886482e-1
.3169205200,.4901501802,-.1488481036e-1
.3225038430,.4901883512,-.4598511709e-2
.3280413270,.4901863994,.5602852321e-2
.3335338540,.4901452995,.1572197093e-1
.3389822700,.4900659803,.2576141010e-1
.3116100700,.5036722568,-.7078217790e-1
.3231324150,.5041592206,-.4951650880e-1
.3344575650,.5044699498,-.2863665730e-1
.3455937550,.5046135853,-.8117405640e-2
.3565484950,.5045984141,.1206412815e-1
.3673286530,.5044319777,.3192879268e-1
.3779405310,.5041211585,.5149564731e-1
.3179722950,.5169518001,-.1052523861
.3355124510,.5180506150,-.7280946901e-1
.3525936640,.5187352232,-.4128935847e-1
.3692455020,.5190384863,-.1060130732e-1
.3854936410,.5189887047,.1933290726e-1
.4013605540,.5186104443,.4858131674e-1
.4168660520,.5179251799,.7720357783e-1
.4320277060,.5169518001,.1052523896
.3246821176,.5298088282,-.1392020035
.3484210270,.5317700217,-.9516391261e-1
.3713148230,.5329613780,-.5286932481e-1
.3934380060,.5334658133,-.1208899871e-1
.4148521040,.5333510322,.2736441173e-1
.4356086760,.5326731201,.6564652097e-1
.4557514480,.5314791057,.1028884361
.4753178820,.5298088294,.1392020010
.3317248140,.5422612464,-.1726914333
.3618521313,.5453409281,-.1165969177
.3906099350,.5471621319,-.6339687478e-1
.4181527950,.5478970975,-.1261446431e-1
.4446019290,.5476789475,.3611911990e-1
.4700546190,.5466129589,.8309657811e-1
.4945903800,.5447839418,.1285553017
.3390877253,.5543244345,-.2057750758
.3758028622,.5587857062,-.1371174619
.4104703062,.5613497268,-.7288731527e-1
.4433735670,.5623327779,-.1220771644e-1
.4747234460,.5619658345,.4556204203e-1
.5046820560,.5604233571,.1009080971
.5333773300,.5578405739,.1542107240
.5609122730,.5543244354,.2057750712
.3056126130,.4899493312,-.3572362653e-1
.3112904320,.4900708636,-.2525886432e-1
.3169205200,.4901501797,-.1488481088e-1
.3225038430,.4901883508,-.4598511961e-2
.3280413270,.4901863994,.5602852821e-2
.3335338540,.4901452995,.1572197143e-1
.3389822700,.4900659808,.2576141180e-1
