-.3348757281,.4148700111,-.7410109156
-.3257129372,.4398900339,-.6786294750
-.3190977528,.4618133968,-.6250190016
-.3141925546,.4816582411,-.5771631352
-.3105459680,.4999732221,-.5334460075
-.3078813253,.5170946315,-.4928825681
-.3060143090,.5332465124,-.4548198281
-.3048147134,.5485871310,-.4187985852
-.3041864587,.5632332753,-.3844813433
-.3040562166,.5772740777,-.3516114173
-.3521123636,.4013733458,-.8194316951
-.3384308685,.4318859344,-.7411357064
-.3292622156,.4569130822,-.6787338756
-.3226433249,.4788409498,-.6251107962
-.3177354948,.4986889929,-.5772461795
-.3140869043,.5170064073,-.5335225479
-.3114206605,.5341297647,-.4929540251
-.3095523223,.5502832527,-.4548871918
-.3083516065,.5656252334,-.4188625655
-.3077223833,.5802725571,-.3845424674
-.3840591892,.3703398293,-.9502853457
-.3564222539,.4178154979,-.8216059238
-.3425866422,.4485154161,-.7427616445
-.3333412850,.4736358013,-.6800929166
-.3266739978,.4956224951,-.6263051700
-.3217318400,.5155122631,-.5783263862
-.3180571216,.5338614381,-.5345178494
-.3153700286,.5510101365,-.4938831731
-.3134844762,.5671845488,-.4557630288
-.3122691775,.5825442557,-.4196943512
-.4074674561+.5013216029e-1*I,.3500459984+.6093651995e-1*I,-1.047197551+.1836754510*I
-.3908585950,.3841168502,-.9608001462
-.3615294066,.4336494824,-.8259494619
-.3473802372,.4647305357,-.7459887713
-.3379808547,.4900381411,-.6827836927
-.3312169224,.5121423092,-.6286668503
-.3262064286,.5321151410,-.5804606048
-.3224798029,.5505274108,-.5364832572
-.3197513459,.5677263878,-.4957172165
-.3178316773,.5839422689,-.4574913272
-.4048484423+.7655902998e-1*I,.3617688737+.9305884346e-1*I,-1.047197551+.2784658793*I
-.4116595531+.5227154226e-1*I,.3673723394+.6353697624e-1*I,-1.047197551+.1914212724*I
-.4001988550,.3951855082,-.9798248391
-.3675129716,.4487982629,-.8327098797
-.3528602377,.4804914072,-.7509539011
-.3432191345,.5060928269,-.6869059977
-.3363049820,.5283795909,-.6322769476
-.3311888348,.5484808475,-.5837185503
-.3273822306,.5669903322,-.5394807432
-.3245901914,.5842665944,-.4985124926
-.4024771123+.9676635536e-1*I,.3735921036+.1176212018*I,-1.047197551+.3493803516*I
-.4092882224+.7852332163e-1*I,.3791955687+.9544647446e-1*I,-1.047197551+.2854247897*I
-.4160993334+.5505355374e-1*I,.3847990345+.6691855995e-1*I,-1.047197551+.2014767833*I
-.4164818633,.3982165523,-1.023509485
-.3744879622,.4631433671,-.8422600306
-.3590899470,.4957424129,-.7578419958
-.3491036464,.5217634252,-.6925882240
-.3419780320,.5443072240,-.6372367945
-.3367143271,.5645878409,-.5881856308
-.3327965799,.5832324204,-.5435851663
-.4003681892+.1141526912*I,.3855216534+.1387545978*I,-1.047197551+.4090851095*I
-.4071792993+.9880525584e-1*I,.3911251187+.1200995211*I,-1.047197551+.3564478729*I
-.4139904099+.8097479713e-1*I,.3967285840+.9842628578e-1*I,-1.047197551+.2940907767*I
-.4208015206+.5843076656e-1*I,.4023320497+.7102362140e-1*I,-1.047197551+.2136565931*I
-.4276126309+.1828083785e-1*I,.4079355150+.2222067898e-1*I,-1.047197551+.6730419912e-1*I
-.3826262622,.4764997250,-.8551738772
-.3661525699,.5104062764,-.7669040605
-.3556938014,.5370015827,-.6999957855
-.3482845786,.5598901124,-.6436731142
-.3428251193,.5804086716,-.5939665892
-.3985382239+.1299002928*I,.3975642290+.1578960837*I,-1.047197551+.4620009080*I
-.4053493352+.1163330540*I,.4031676952+.1414048671*I,-1.047197551+.4164795861*I
-.4121604447+.1012693014*I,.4087711598+.1230946117*I,-1.047197551+.3649663233*I
-.4189715559+.8390685436e-1*I,.4143746258+.1019902528*I,-1.047197551+.3044274570*I
-.4257826660+.6235420730e-1*I,.4199780909+.7579263238e-1*I,-1.047197551+.2277671489*I
-.4325937766+.2825829993e-1*I,.4255815565+.3434845910e-1*I,-1.047197551+.1039293911*I
-.3922012180,.4885619092,-.8723885520
-.3741597226,.5243741535,-.7784869867
-.3630647305,.5517428009,-.7093439247
-.3552841445,.5750827295,-.6517455440
-.3970059340+.1445903106*I,.4097274147+.1757520577*I,-1.047197552+.5102996267*I
-.4038170436+.1322549742*I,.4153308800+.1607582403*I,-1.047197551+.4698132563*I
-.4106281533+.1189083525*I,.4209343448+.1445351877*I,-1.047197551+.4251857640*I
-.4174392647+.1041624271*I,.4265378109+.1266112568*I,-1.047197551+.3749358369*I
-.4242503749+.8731107838e-1*I,.4321412761+.1061281469*I,-1.047197551+.3163891925*I
-.4310614858+.6677900015e-1*I,.4377447419+.8117104569e-1*I,-1.047197551+.2436273660*I
-.4378725963+.3685706370e-1*I,.4433482074+.4480040724e-1*I,-1.047197551+.1353844379*I
-.4036989427,.4987693722,-.8956109373
-.3832661775,.5374882463,-.7930858618
-.3713131345,.5658998696,-.7209175636
-.3957926098+.1585629739*I,.4220198365+.1927360753*I,-1.047197551+.5552457873*I
-.4026037196+.1471424464*I,.4276233015+.1788542239*I,-1.047197551+.5185824369*I
-.4094148304+.1349902940*I,.4332267673+.1640830695*I,-1.047197551+.4788550187*I
-.4162259408+.1218878882*I,.4388302326+.1481568656*I,-1.047197551+.4352206835*I
-.4230370520+.1074882894*I,.4444336986+.1306539006*I,-1.047197551+.3863526520*I
-.4298481624+.9117897498e-1*I,.4500371639+.1108296430*I,-1.047197551+.3299271309*I
-.4366592734+.7166781696e-1*I,.4556406297+.8711348828e-1*I,-1.047197551+.2610810844*I
-.4434703838+.4496381234e-1*I,.4612440951+.5465430238e-1*I,-1.047197551+.1649187875*I
-.4181880454,.5058577100,-.9286731987
-.3936976062,.5495087580,-.8114433785
-.2453551181,.4614661350,-.5353202641
-.2426511683,.4786353243,-.4946320689
-.2407517074,.4948266411,-.4564688324
-.2395246319,.5102006629,-.4203645619
-.2388726285,.5248756748,-.3859773753
-.2387215266,.5389418335,-.3530476006
-.2390132419,.5524697373,-.3213724871
-.2397012737,.5655159124,-.2907900698
-.2407477088,.5781264418,-.2611685129
-.2421211571,.5903394807,-.2323987514
-.2516451600,.4605564889,-.5771935360
-.2479978398,.4788723613,-.5334740263
-.2453326110,.4959944835,-.4929087269
-.2434651110,.5121469517,-.4548444907
-.2422651052,.5274880704,-.4188220056
-.2416364960,.5421346452,-.3845037214
-.2415059424,.5561758258,-.3516329031
-.2418159490,.5696814972,-.3200088725
-.2425204464,.5827076576,-.2894711889
-.2435818456,.5952999975,-.2598891470
-.2595214901,.4580290545,-.6238377587
-.2546500789,.4778328299,-.5760941979
-.2510292454,.4961165055,-.5324607088
-.2483851733,.5132129119,-.4919625008
-.2465351540,.5293441320,-.4539523668
-.2453499651,.5446672397,-.4179746125
-.2447341686,.5592982410,-.3836940289
-.2446148747,.5733257349,-.3508554867
-.2449349085,.5868192183,-.3192594341
-.2456484354,.5998344039,-.2887462565
-.2695091474,.4532595336,-.6770852910
-.2629485949,.4751164889,-.6236605915
-.2580822380,.4949141212,-.5759338248
-.2544652600,.5131931110,-.5323128510
-.2518242695,.5302857713,-.4918244128
-.2499767969,.5464138972,-.4538221552
-.2487937678,.5617343784,-.4178509213
-.2481798392,.5763631095,-.3835758317
-.2480621872,.5903886075,-.3507419943
-.2483836833,.6038803128,-.3191500220
-.2825849294,.4450758883,-.7403991410
-.2734508276,.4700610392,-.6781174836
-.2668537964,.4919623355,-.6245687533
-.2619614940,.5117915059,-.5767557560
-.2583247335,.5300945412,-.5330705486
-.2556679370,.5472064136,-.4925319952
-.2538074023,.5633504162,-.4544893184
-.2526132998,.5786843592,-.4184846574
-.2519897946,.5933247298,-.3841813953
-.2518637258,.6073604585,-.3513234360
-.3010861291,.4306539511,-.8221870521
-.2872090072,.4614043256,-.7431950449
-.2779431042,.4865496828,-.6804548075
-.2712628824,.5085521000,-.6266230338
-.2663115618,.5284530086,-.5786137579
-.2626298767,.5468106498,-.5347825797
-.2599372271,.5639661020,-.4941302659
-.2580470890,.5801460872,-.4559959178
-.2568279070,.5955105145,-.4199155051
-.2561827233,.6101772363,-.3855484132
-.3371676952,.3952378347,-.9668073926
-.3068207811,.4460075309,-.8282413432
-.2925030511,.4772934709,-.7476800283
-.2830219859,.5027003616,-.6841902913
-.2762070920,.5248664748,-.6298997756
-.2711606786,.5448829683,-.5815738705
-.2674068248,.5633283340,-.5375079005
-.2646567013,.5805536469,-.4966729925
-.2627191812,.5967912263,-.4583917245
-.2614599062,.6122043869,-.4221900511
-.3565278014+.5353637993e-1*I,.3805427606+.6507440861e-1*I,-1.047197551+.1959954262*I
-.3491001818,.4034536535,-.9947114163
-.3135034986,.4606045348,-.8369399079
-.2985256913,.4926928122,-.7540235134
-.2887321964,.5184794656,-.6894435840
-.2817242467,.5408802425,-.6344943018
-.2765424803,.5610612600,-.5857169068
-.2726863701,.5796309187,-.5413176656
-.2698550659,.5969549087,-.5002243685
-.2678507752,.6132736495,-.4617356685
-.3543512287+.7978923222e-1*I,.3924449007+.9698521095e-1*I,-1.047197551+.2899024385*I
-.3611623396+.5680960524e-1*I,.3980483664+.6905307132e-1*I,-1.047197551+.2078137166*I
-.3679734494+.1229385975e-1*I,.4036518313+.1494340212e-1*I,-1.047197551+.4528076466e-1*I
-.3212845026,.4742855562,-.8487793169
-.3053535994,.5075323387,-.7624544585
-.2951294913,.5338424096,-.6963684931
-.2878602897,.5565607412,-.6405256726
-.2824971699,.5769621966,-.5911419148
-.2785049078,.5956973522,-.5462978495
-.2755659826,.6131521574,-.5048611615
-.3524492515+.1001821835*I,.4044582991+.1217732008*I,-1.047197551+.3612111431*I
-.3592603624+.8261717624e-1*I,.4100617648+.1004226265*I,-1.047197551+.2998846509*I
-.3660714734+.6064258632e-1*I,.4156652307+.7371212706e-1*I,-1.047197551+.2216166712*I
-.3728825830+.2433612680e-1*I,.4212686953+.2958098887e-1*I,-1.047197551+.8954577851e-1*I
-.3303963083,.4867939984,-.8645494425
-.3130887736,.5217141000,-.7732867937
-.3022840677,.5487298989,-.7051643201
-.2946714267,.5718656877,-.6481434021
-.2890730788,.5925530676,-.5979707931
-.2849056883,.6115010938,-.5525528225
-.1751892635,.4860480216,-.3907206659
-.1749715318,.5001951684,-.3575992645
-.1752040028,.5137950848,-.3257582723
-.1758387550,.5269060231,-.2950307317
-.1768368090,.5395753613,-.2652810771
-.1781659569,.5518422486,-.2363973950
-.1797992283,.5637394678,-.2082859831
-.1817137785,.5752947884,-.1808674079
-.1838900648,.5865319646,-.1540736051
-.1863112240,.5974714920,-.1278456822
-.1779268893,.4888021952,-.4223096236
-.1772452569,.5035132218,-.3878350623
-.1770681494,.5176109886,-.3548305843
-.1773367292,.5311670146,-.3230907678
-.1780039457,.5442384925,-.2924517193
-.1790314718,.5568720054,-.2627801612
-.1803876004,.5691060975,-.2339659166
-.1820457522,.5809730746,-.2059166420
-.1839833934,.5925003275,-.1785539801
-.1861812324,.6037113053,-.1518107261
-.1814742057,.4908554934,-.4560143970
-.1802547153,.5062202955,-.4199330525
-.1796092652,.5208873421,-.3855651733
-.1794639182,.5349465029,-.3526519229
-.1797607553,.5484681820,-.3209911180
-.1804533968,.5615087537,-.2904212299
-.1815040208,.5741141922,-.2608107377
-.1828813070,.5863225658,-.2320508236
-.1845589795,.5981658155,-.2040501880
-.1865147459,.6096710371,-.1767313083
-.1859557496,.4920678930,-.4922379979
-.1841006455,.5082052945,-.4542121282
-.1829111460,.5235336421,-.4182213633
-.1822916213,.5381691750,-.3839298121
-.1821690508,.5522006523,-.3510818784
-.1824861664,.5656976827,-.3194776854
-.1831970651,.5787160620,-.2889573781
-.1842642836,.5913013292,-.2593906876
-.1856567770,.6034912186,-.2306697544
-.1873484858,.6153174063,-.2027040321
-.1915387253,.4922485509,-.5315319735
-.1889139850,.5093214599,-.4910950350
-.1870799491,.5254332528,-.4531343389
-.1859083152,.5407398836,-.4171974813
-.1853042449,.5553566325,-.3829513802
-.1851952595,.5693715942,-.3501423729
-.1855244759,.5828539166,-.3185719249
-.1862462736,.5958590475,-.2880811836
-.1873234018,.6084322692,-.2585406204
-.1887249795,.6206111170,-.2298429458
-.1984583639,.4911251131,-.5746870800
-.1948712868,.5093677586,-.5311631419
-.1922542084,.5264313541,-.4907504791
-.1904265100,.5425354425,-.4528093815
-.1892602524,.5578355385,-.4168887372
-.1886608346,.5724466324,-.3826563125
-.1885559399,.5864566225,-.3498590170
-.1888888009,.5999345138,-.3182987302
-.1896138820,.6129356551,-.2878168876
-.1906939960,.6255052472,-.2582841929
-.2070674193,.4882837132,-.6229112251
-.2022224046,.5080554042,-.5752553602
-.1986217144,.5263145952,-.5316872546
-.1959937458,.5433914285,-.4912400860
-.1941570401,.5595064657,-.4532711352
-.1929831415,.5748158488,-.4173274478
-.1923771117,.5894349794,-.3830755859
-.1922664035,.6034520369,-.3502616405
-.1925940851,.6169362239,-.3186869161
-.1933145004,.6299430361,-.2881924240
-.2179460963,.4830355383,-.6782266855
-.2113451964,.5049415380,-.6246647964
-.2064501450,.5247740494,-.5768426618
-.2028112894,.5430796323,-.5331506478
-.2001528199,.5601935367,-.4926067919
-.1982909030,.5763392188,-.4545598382
-.1970956289,.5916745860,-.4185516400
-.1964711105,.6063161886,-.3842453951
-.1963441516,.6203529989,-.3513848851
-.1966573590,.6338547800,-.3197697868
-.2321998314,.4740550917,-.7445512431
-.2228693572,.4992789351,-.6815861935
-.2161485713,.5213306586,-.6276163142
-.2111685507,.5412664499,-.5795115305
-.2074650548,.5596506045,-.5356094279
-.2047550201,.5768271890,-.4949019111
-.2028505401,.5930246076,-.4567231159
-.2016192161,.6084037934,-.4206060011
-.2009635429,.6230832651,-.3862080010
-.2008092187,.6371533397,-.3532689777
-.2526147402,.4579759992,-.8319127369
-.2380223923,.4895957428,-.7503721941
-.2284099116,.5151623713,-.6864241601
-.2215134542,.5374276267,-.6318554872
-.2164097168,.5575137988,-.5833384823
-.2126124895,.5760118846,-.5391312374
-.2098278951,.5932790979,-.4981866801
-.2078620007,.6095511664,-.4598173203
-.2065787449,.6249934766,-.4235430214
-.2058782485,.6397274320,-.3890127680
-.1142898518,.5007519635,-.2720059021
-.1155458132,.5131078099,-.2429329899
-.1171116687,.5250869741,-.2146523990
-.1189637113,.5367182743,-.1870817184
-.1210817038,.5480263073,-.1601505021
-.1234482171,.5590322586,-.1337979206
-.1260481233,.5697545168,-.1079709837
-.1288682026,.5802091510,-.8262315633e-1
-.1318968326,.5904102879,-.5771327523e-1
-.1351237425,.6003704120,-.3320467933e-1
-.1149283583,.5054565033,-.2982108130
-.1158898613,.5181702695,-.2683640438
-.1171855734,.5304777995,-.2393940663
-.1187880320,.5424124728,-.2112054743
-.1206740017,.5540025334,-.1837174875
-.1228236251,.5652721176,-.1568609614
-.1252197825,.5762420362,-.1305761207
-.1278476014,.5869303661,-.1048108444
-.1306940748,.5973529180,-.7951931443e-1
-.1337477600,.6075236002,-.5466096748e-1
-.1161153008,.5097554049,-.3256947954
-.1167508277,.5228654019,-.2949693680
-.1177495846,.5355338844,-.2652215811
-.1190793758,.5477999896,-.2363395573
-.1207132404,.5596964887,-.2082296265
-.1226283409,.5712511401,-.1808123861
-.1248051407,.5824876920,-.1540197894
-.1272267817,.5934266343,-.1277929601
-.1298786082,.6040857831,-.1020805056
-.1327477935,.6144807278,-.7683722081e-1
-.1179056646,.5135912352,-.3546215031
-.1181769623,.5271439581,-.3228892913
-.1188466232,.5402124633,-.2922569006
-.1198763696,.5528432785,-.2625912156
-.1212345314,.5650748987,-.2337821975
-.1228945587,.5769395961,-.2057376008
-.1248339413,.5884647330,-.1783791475
-.1270334057,.5996737347,-.1516397008
-.1294763101,.6105868316,-.1254611143
-.1321481767,.6212216206,-.9979260447e-1
-.1203660942,.5168931931,-.3851931836
-.1202259358,.5309460472,-.3522948208
-.1205273914,.5444621128,-.3206469150
-.1212241903,.5574976309,-.2900883237
-.1222785924,.5700984771,-.2604878088
-.1236593404,.5823026432,-.2317367727
-.1253402077,.5941420097,-.2037440874
-.1272989414,.6056436245,-.1764323668
-.1295164761,.6168306618,-.1497351820
-.1319763399,.6277231434,-.1235949714
-.1235789404,.5195722907,-.4176647215
-.1229678226,.5341976051,-.3833978996
-.1228526414,.5482200991,-.3505711425
-.1231763383,.5617091306,-.3189853052
-.1238931645,.5747203053,-.2884810790
-.1249657720,.5872990226,-.2589285981
-.1263632054,.5994829077,-.2302203152
-.1280594744,.6113035513,-.2022659265
-.1300325149,.6227877760,-.1749886868
-.1322634139,.6339585686,-.1483226952
-.1276483721,.5215140301,-.4523650372
-.1264894585,.5368051991,-.4164665358
-.1258963969,.5514085655,-.3822527942
-.1257970919,.5654117627,-.3494714969
-.1261349336,.5788835989,-.3179250911
-.1268645022,.5918792860,-.2874554105
-.1279486974,.6044439179,-.2579334657
-.1293567543,.6166148895,-.2292523693
-.1310628329,.6284236107,-.2013223338
-.1330449878,.6398967568,-.1740670305
-.1327100835,.5225667352,-.4897313103
-.1309010938,.5386480848,-.4518480310
-.1297507141,.5539288808,-.4159752508
-.1291650402,.5685232670,-.3817832140
-.1290722333,.5825185652,-.3490205134
-.1294158661,.5959833632,-.3174902365
-.1301506529,.6089727069,-.2870346956
-.1312395943,.6215315694,-.2575252495
-.1326520037,.6336972509,-.2288552821
-.1343621017,.6455010869,-.2009352180
-.1389475680,.5225219270,-.5303667363
-.1363470035,.5395654484,-.4900063793
-.1345329699,.5556529285,-.4521075156
-.1333783084,.5709389295,-.4162218302
-.1327889277,.5855378207,-.3820189060
-.1326928602,.5995370826,-.3492468743
-.1330335872,.6130054132,-.3177085028
-.1337657552,.6259979393,-.2872458690
-.1348523148,.6385596973,-.2577301506
-.1362625400,.6507280338,-.2290545983
-.1466215288,.5210787432,-.5751456192
-.1430234692,.5393347382,-.5315860467
-.1403976051,.5564090124,-.4911455490
-.1385626396,.5725219345,-.4531819800
-.1373902170,.5878295253,-.4172427403
-.1367854644,.6024471023,-.3829946365
-.1366758791,.6164627942,-.3501839087
-.1370045610,.6299457658,-.3186119715
-.1377258774,.6429514837,-.2881199210
-.1388025677,.6555252372,-.2585782046
-.59454013e-1,.5093664277,-.1684392477
-.61745159e-1,.5204639889,-.1419131948
-.64274170e-1,.5312724216,-.1159284738
-.67027270e-1,.5418084709,-.9043667349e-1
-.69992371e-1,.5520868279,-.6539507222e-1
-.73158806e-1,.5621204603,-.4076568957e-1
-.765171174e-1,.5719208634,-.1651455893e-1
-.800588852e-1,.5814982727,.7388883239e-2
-.837765846e-1,.5908618335,.3097228392e-1
-.876634710e-1,.6000197447,.5426078973e-1
-.586004912e-1,.5153275554,-.1912044775
-.606794842e-1,.5266829919,-.1641807680
-.630094730e-1,.5377333410,-.1377443370
-.655750089e-1,.5484973760,-.1118411165
-.683626058e-1,.5589914927,-.8642366708e-1
-.713604176e-1,.5692300906,-.6145007246e-1
-.745579824e-1,.5792258839,-.3688304435e-1
-.779460188e-1,.5889901559,-.1268919155e-1
-.815162580e-1,.5985329579,.1116155426e-1
-.852613064e-1,.6078632760,.3469641783e-1
-.581650982e-1,.5210227984,-.2148588376
-.600151023e-1,.5326565745,-.1872831825
-.621311952e-1,.5439669171,-.1603474695
-.644959287e-1,.5549750319,-.1339908121
-.670941597e-1,.5656993265,-.1081601656
-.699126549e-1,.5761558853,-.8280895394e-1
-.729397819e-1,.5863588491,-.5789597364e-1
-.761652604e-1,.5963207135,-.3338453453e-1
-.795799635e-1,.6060525721,-.9241758813e-2
-.831757559e-1,.6155643137,.1456198613e-1
-.581792303e-1,.5264218658,-.2394883382
-.597807166e-1,.5383577191,-.2112973110
-.616657850e-1,.5499488754,-.1838071309
-.638145679e-1,.5612194822,-.1569486221
-.662099374e-1,.5721903588,-.1306619840
-.688370140e-1,.5828795906,-.1048950720
-.716827853e-1,.5933029952,-.7960204918e-1
-.747358040e-1,.6034744878,-.5474233397e-1
-.779859472e-1,.6134063715,-.3027976090e-1
-.814242233e-1,.6231095763,-.6181894631e-2
-.586791308e-1,.5314892107,-.2651940991
-.600092191e-1,.5437549543,-.2363128418
-.616433577e-1,.5556511210,-.2082035944
-.635587123e-1,.5672054633,-.1807869711
-.657357493e-1,.5784417272,-.1539949306
-.681576129e-1,.5893803997,-.1277686052
-.708096488e-1,.6000392927,-.1020566135
-.736790327e-1,.6104339968,-.7681374798e-1
-.767544752e-1,.6205782326,-.5199996114e-1
-.800259885e-1,.6304841407,-.2757953138e-1
-.597070715e-1,.5361826707,-.2920962759
-.607386476e-1,.5488112608,-.2624354344
-.620984853e-1,.5610408439,-.2336307228
-.637600585e-1,.5729036628,-.2055899795
-.657008761e-1,.5844270547,-.1782349970
-.679016807e-1,.5956344283,-.1514986861
-.703458424e-1,.6065459963,-.1253229490
-.730188945e-1,.6171793449,-.9965703307e-1
-.759081680e-1,.6275498715,-.7445626591e-1
-.790025064e-1,.6376711394,-.4968103268e-1
-.613129450e-1,.5404515918,-.3203394700
-.620134549e-1,.5534826006,-.2897909550
-.630712296e-1,.5660793462,-.2601993469
-.644550682e-1,.5782797562,-.2314562339
-.661387879e-1,.5901156555,-.2034706454
-.681001707e-1,.6016140496,-.1761653150
-.703201800e-1,.6127980793,-.1494739097
-.727823667e-1,.6236877381,-.1233389464
-.754724133e-1,.6343004288,-.9771018270e-1
-.783777766e-1,.6446513991,-.7254336167e-1
-.635564731e-1,.5442342557,-.3501001942
-.638862321e-1,.5577159174,-.3185312612
-.646085187e-1,.5707204550,-.2880418437
-.656860913e-1,.5832931364,-.2585024518
-.670880764e-1,.5954714880,-.2298058218
-.687885483e-1,.6072870249,-.2018618673
-.707654935e-1,.6187665031,-.1745940289
-.730000406e-1,.6299328618,-.1479365416
-.754758765e-1,.6408059296,-.1218323849
-.781787960e-1,.6514029739,-.9623169391e-1
-.665103437e-1,.5474541636,-.3815976616
-.664201026e-1,.5614463434,-.3488423006
-.667660222e-1,.5749083610,-.3173183940
-.675028699e-1,.5878952004,-.2868684336
-.685936860e-1,.6004517848,-.2573639209
-.700078143e-1,.6126153758,-.2286983505
-.717195001e-1,.6244172826,-.2007822228
-.737068654e-1,.6358840945,-.1735394513
-.759511495e-1,.6470386178,-.1469046451
-.784361291e-1,.6579005706,-.1208210930
-.702648197e-1,.5500145616,-.4151097365
-.696921388e-1,.5645931552,-.3809558504
-.696107637e-1,.5785745586,-.3482258455
-.699645868e-1,.5920269695,-.3167239406
-.707085575e-1,.6050051498,-.2862932694
-.718058539e-1,.6175538572,-.2568058109
-.732259257e-1,.6297102251,-.2281554261
-.749431007e-1,.6415054585,-.2002529106
-.769355681e-1,.6529660695,-.1730223989
-.791846201e-1,.6641147969,-.1463986893
-.9132783e-2,.5136864334,-.7501092523e-1
-.12222681e-1,.5238130987,-.5022664421e-1
-.15507975e-1,.5337022566,-.2583329423e-1
-.18979862e-1,.5433646073,-.1799061467e-2
-.22630487e-1,.5528096980,.2190477369e-1
-.26452817e-1,.5620460789,.4530428156e-1
-.30440536e-1,.5710814262,.6842324118e-1
-.34587960e-1,.5799226495,.9128344868e-1
-.38889962e-1,.5885759806,.1139049735
-.43341912e-1,.5970470467,.1363063739
-.7117620e-2,.5205396875,-.9534263885e-1
-.10042492e-1,.5308669435,-.7021685611e-1
-.13170666e-1,.5409470832,-.4551032042e-1
-.16492464e-1,.5507918693,-.2118833884e-1
-.19999277e-1,.5604117668,.2780268829e-2
-.23683416e-1,.5698161201,.2642368104e-1
-.27537994e-1,.5790133028,.4976750255e-1
-.31556823e-1,.5880108370,.7283511116e-1
-.35734329e-1,.5968154938,.9564794856e-1
-.40065488e-1,.6054333845,.1182257805
-.5442163e-2,.5272066610,-.1163440238
-.8191745e-2,.5377469860,-.9084461928e-1
-.11153510e-1,.5480293976,-.6579606010e-1
-.14316772e-1,.5580668868,-.4116030087e-1
-.17672055e-1,.5678709718,-.1690331269e-1
-.21210922e-1,.5774519064,.7005516550e-2
-.249258365e-1,.5868188526,.3059387861e-1
-.288100410e-1,.5959800242,.5388695902e-1
-.328574626e-1,.6049428024,.7690777016e-1
-.370626313e-1,.6137138361,.9967744019e-1
-.41269734e-2,.5336690198,-.1380671333
-.66896892e-2,.5444364833,-.1121576346
-.94746218e-2,.5549338383,-.8673445825e-1
-.124699064e-1,.5651755077,-.6175562419e-1
-.156650658e-1,.5751742256,-.3718378969e-1
-.190508047e-1,.5849412900,-.1298552319e-1
-.226188425e-1,.5944867671,.1086928326e-1
-.263617761e-1,.6038196554,.3440788762e-1
-.302729662e-1,.6129480253,.5765509814e-1
-.343464434e-1,.6218791322,.8063360230e-1
-.31951356e-2,.5399058707,-.1605714074
-.55578448e-2,.5509164451,-.1342101149
-.81541704e-2,.5616430558,-.1083752486
-.109708649e-1,.5721018045,-.8302018326e-1
-.139962826e-1,.5823068459,-.5810367774e-1
-.172201332e-1,.5922706891,-.3358900500e-1
-.206332807e-1,.6020044378,-.9443259334e-2
-.242275820e-1,.6115179910,.1436321860e-1
-.279957539e-1,.6208202031,.3785730441e-1
-.319312603e-1,.6299190151,.6106346816e-1
-.26727295e-2,.5458932359,-.1839251835
-.48204050e-2,.5571651878,-.1570640667
-.72147366e-2,.5681373263,-.1307750606
-.98408356e-2,.5788277462,-.1050059938
-.126856824e-1,.5892522753,-.7971100138e-1
-.157378230e-1,.5994248343,-.5484948582e-1
-.189871298e-1,.6093577347,-.3038525942e-1
-.224246064e-1,.6190619117,-.6285873152e-2
-.260422301e-1,.6285471168,.1747793810e-1
-.298328214e-1,.6378220759,.4093270973e-1
-.25894340e-2,.5516033876,-.2082076104
-.45047494e-2,.5631577778,-.1807908913
-.66817495e-2,.5743940850,-.1539987677
-.91035789e-2,.5853327990,-.1277723649
-.117555826e-1,.5959917321,-.1020603000
-.146249357e-1,.6063864729,-.7681737103e-1
-.177003489e-1,.6165307438,-.5200352557e-1
-.209718346e-1,.6264366859,-.2758304054e-1
-.244305161e-1,.6361150878,-.3523862797e-2
-.280684743e-1,.6455755754,.2020293684e-1
-.29792957e-2,.5570039672,-.2335111724
-.46420887e-2,.5688653026,-.2054734721
-.65840388e-2,.5803873179,-.1781212269
-.87859007e-2,.5915934064,-.1513873910
-.112310547e-1,.6025037689,-.1252138996
-.139050420e-1,.6131359800,-.9955003249e-1
-.167952012e-1,.6235054313,-.7435113367e-1
-.198903809e-1,.6336256765,-.4957761406e-1
-.231807102e-1,.6435087127,-.2519414250e-1
-.266574144e-1,.6531652083,-.1168990516e-2
-.38817406e-2,.5620568457,-.2599449815
-.52683029e-2,.5742539440,-.2312088528
-.69545368e-2,.5860867870,-.2032295181
-.89182549e-2,.5975823433,-.1759298166
-.111404453e-1,.6087637220,-.1492435037
-.136046796e-1,.6196508912,-.1231131670
-.162966573e-1,.6302612356,-.9748861657e-1
-.192038488e-1,.6406099828,-.7232564877e-1
-.223152151e-1,.6507105526,-.4758504284e-1
-.256209807e-1,.6605748265,-.2323178247e-1
-.53429106e-2,.5667165750,-.2876392416
-.64250305e-2,.5792837287,-.2581118319
-.78311848e-2,.5914570135,-.2294258674
-.95355065e-2,.6032678705,-.2014914710
-.115160288e-1,.6147430019,-.1742322381
-.137539180e-1,.6259052973,-.1475825411
-.162328926e-1,.6367745509,-.1214854578
-.189387723e-1,.6473679961,-.9589121688e-1
-.218591299e-1,.6577007407,-.7075594777e-1
-.249830113e-1,.6677860977,-.4604072207e-1
.37575862e-1,.5147341370,.1110770467e-1
.33831203e-1,.5240649289,.3464325786e-1
.29918351e-1,.5331912779,.5788765296e-1
.25843269e-1,.5421204343,.8086356243e-1
.21611330e-1,.5508589283,.1035918130
.17227385e-1,.5594126554,.1260916304
.12695815e-1,.5677869431,.1483808340
.8020586e-2,.5759866104,.1704760120
.3205285e-2,.5840160167,.1923926669
-.1746846e-2,.5918791050,.2141453436
.40545658e-1,.5222593839,-.7391594815e-2
.36936192e-1,.5317545058,.1638711614e-1
.33153444e-1,.5410389988,.3985561498e-1
.29203889e-1,.5501207350,.6303819124e-1
.25093352e-1,.5590067944,.8595707929e-1
.20827083e-1,.5677035598,.1086327313
.16409825e-1,.5762167945,.1310840425
.11845862e-1,.5845517077,.1533285440
.7139072e-2,.5927130118,.1753825693
.2292961e-2,.6007049691,.1972613954
.43228388e-1,.5296489753,-.2642244715e-1
.39760944e-1,.5393167271,-.2379828246e-2
.36114582e-1,.5487669987,.2133172605e-1
.32296352e-1,.5580083636,.4473834843e-1
.28312588e-1,.5670485175,.6786386786e-1
.24168986e-1,.5758943880,.9073012723e-1
.19870689e-1,.5845522215,.1133572332
.15422336e-1,.5930276604,.1357637812
.10828123e-1,.6013258050,.1579670372
.6091848e-2,.6094512691,.1799831014
.456094192e-1,.5368907963,-.4601925602e-1
.422915502e-1,.5467403580,-.2168961932e-1
.387884972e-1,.5563648261,.2286029487e-2
.351079672e-1,.5657735664,.2593592489e-1
.312568622e-1,.5749749715,.4928572248e-1
.272413862e-1,.5839765790,.7235884044e-1
.230671212e-1,.5927851764,.9517676180e-1
.187391042e-1,.6014068866,.1177592821
.142618882e-1,.6098472411,.1401247224
.96395852e-2,.6181112407,.1622901086
.476726114e-1,.5439713126,-.6622057974e-1
.445127104e-1,.5540128875,-.4157806055e-1
.411606354e-1,.5638208724,-.1731486389e-1
.376248404e-1,.5734055407,.6599674649e-2
.339128764e-1,.5827760729,.3019329625e-1
.300315124e-1,.5919406967,.5349122363e-1
.259868323e-1,.6009068073,.7651650424e-1
.217843166e-1,.6096810661,.9929029902e-1
.174289102e-1,.6182694826,.1218321189
.129250806e-1,.6266774881,.1441600382
.494000880e-1,.5508753330,-.8706980806e-1
.464075313e-1,.5611203181,-.6208531515e-1
.432149686e-1,.5711221921,-.3750829177e-1
.398317097e-1,.5808922712,-.1330525733e-1
.362660475e-1,.5904406363,.1055393592e-1
.325253964e-1,.5997762992,.3409658102e-1
.286164049e-1,.6089073417,.5734751650e-1
.245450511e-1,.6178410296,.8032945629e-1
.203167214e-1,.6265839098,.1030632691
.159362765e-1,.6351418929,.1255682179
.507719522e-1,.5575857056,-.1086160348
.479572748e-1,.5680469058,-.8325665526e-1
.449337711e-1,.5782542741,-.5833620024e-1
.417117433e-1,.5882203328,-.3381790582e-1
.383003377e-1,.5979561989,-.9668831145e-2
.347077056e-1,.6074717812,.1414070977e-1
.309411387e-1,.6167759426,.3763761510e-1
.270071781e-1,.6258766347,.6084638241e-1
.229117073e-1,.6347810083,.8378942835e-1
.186600295e-1,.6434955089,.1064873642
.517659402e-1,.5640829476,-.1309151253
.491410520e-1,.5747748407,-.1051433846
.462973508e-1,.5852007617,-.7984595476e-1
.432462976e-1,.5953746428,-.5498220619e-1
.399980271e-1,.6053088024,-.3051593217e-1
.365615410e-1,.6150141832,-.6414663478e-2
.329448674e-1,.6245005420,.1735087882e-1
.291551889e-1,.6337766120,.4080724932e-1
.251989533e-1,.6428502276,.6397864001e-1
.210819606e-1,.6517284406,.8688721143e-1
.523569953e-1,.5703447822,-.1540310405
.499354550e-1,.5812838469,-.1278039825
.472837235e-1,.5919431107,-.1020913203
.444146280e-1,.6023381644,-.7684784563e-1
.413394593e-1,.6124827326,-.5203350013e-1
.380682068e-1,.6223889582,-.2761255599e-1
.346097483e-1,.6320676311,-.3552956475e-2
.309720040e-1,.6415283790,.2017423197e-1
.271620639e-1,.6507798197,.4359525933e-1
.231862930e-1,.6598296904,.6673406307e-1
.525167254e-1,.5763455483,-.1780375404
.503140857e-1,.5875506918,-.1513055239
.478682020e-1,.5984601670,-.1251336861
.451935268e-1,.6090915421,-.9947132400e-1
.423027165e-1,.6194602014,-.7427380183e-1
.392069182e-1,.6295796939,-.4950154345e-1
.359159986e-1,.6394620135,-.2511922697e-1
.324387304e-1,.6491178225,-.1095139969e-2
.287829425e-1,.6585566386,.2259935711e-1
.249556462e-1,.6677869819,.4599025640e-1
.81256611e-1,.5131569097,.9170595872e-1
.76951781e-1,.5218068039,.1143232276
.72497086e-1,.5302745327,.1367207047
.67896701e-1,.5385651749,.1589156039
.63154409e-1,.5466833252,.1809239798
.58273628e-1,.5546331396,.2027608636
.53257449e-1,.5624183774,.2244403885
.48108668e-1,.5700424334,.2459758896
.42829803e-1,.5775083692,.2673800002
.37423118e-1,.5848189389,.2886647357
.85039483e-1,.5212089896,.7464564450e-1
.80849667e-1,.5299986834,.9743922519e-1
.76506574e-1,.5386020679,.1199992970
.72014709e-1,.5470246175,.1423440402
.67378147e-1,.5552712848,.1644903640
.62600573e-1,.5633465493,.1864540517
.57685320e-1,.5712544633,.2082498971
.52635404e-1,.5789986912,.2298918223
.47453545e-1,.5865825407,.2513929766
.42142197e-1,.5940089938,.2727658306
.88573211e-1,.5291600728,.5714733262e-1
.84503240e-1,.5380954403,.8013150869e-1
.80276248e-1,.5468399478,.1028673879
.75897101e-1,.5553995078,.1253742384
.71370197e-1,.5637794665,.1476699259
.66699513e-1,.5719846577,.1697710738
.61888646e-1,.5800194545,.1916932163
.56940851e-1,.5878878137,.2134509302
.51859071e-1,.5955933103,.2350579408
.46645960e-1,.6031391725,.2565272299
.918467912e-1,.5370016464,.3918689705e-1
.879019342e-1,.5460890929,.6237735097e-1
.837959362e-1,.5549806701,.8530350619e-1
.795340632e-1,.5636827796,.1079858619
.751210722e-1,.5722012009,.1304433548
.705612592e-1,.5805411585,.1526935523
.658585132e-1,.5887073779,.1747528199
.610163512e-1,.5967041352,.1966364662
.560379542e-1,.6045352965,.2183588627
.509261982e-1,.6122043558,.2399335590
.948482334e-1,.5447243426,.2073765475e-1
.910342574e-1,.5539708768,.4415166288e-1
.870545944e-1,.5630160164,.6728399511e-1
.829149594e-1,.5718667059,.9015653638e-1
.786205034e-1,.5805292098,.1127894398
.741758804e-1,.5890091830,.1352013313
.695852984e-1,.5973117394,.1574095104
.648525614e-1,.6054415052,.1794301065
.599811144e-1,.6134026652,.2012782166
.549740694e-1,.6211990038,.2229680296
.975644386e-1,.5523178077,.1769992168e-2
.938876786e-1,.5617311306,.2542666567e-1
.900402026e-1,.5709369464,.4878271183e-1
.860282276e-1,.5799428090,.7186159088e-1
.818573486e-1,.5887555221,.9468482708e-1
.775326136e-1,.5973812220,.1172722505
.730585856e-1,.6058254513,.1396422089
.684393866e-1,.6140932239,.1618117599
.636787476e-1,.6221890728,.1837968120
.587800426e-1,.6301171012,.2056122754
.999810378e-1,.5597705551,-.1774906288e-1
.964484848e-1,.5693591647,.6171507164e-2
.927396338e-1,.5787334814,.2977068336e-1
.888612668e-1,.5879017492,.5307373070e-1
.848194818e-1,.5968713770,.7610373314e-1
.806197658e-1,.6056490389,.9888188332e-1
.762670746e-1,.6142407558,.1214277211
.717658833e-1,.6226519689,.1437593450
.671202401e-1,.6308875979,.1658935852
.623338069e-1,.6389520946,.1878461592
.1020822126,.5670697789,-.3785637688e-1
.987016148e-1,.5768430931,-.1364822321e-1
.951385020e-1,.5863945570,.1021567943e-1
.914003002e-1,.5957331965,.3376266160e-1
.874936680e-1,.6048671066,.5701759604e-1
.834245923e-1,.6138035638,.8000322454e-1
.791984676e-1,.6225491247,.1027404404
.748201621e-1,.6311097079,.1252485272
.702940760e-1,.6394906604,.1475453514
.656241880e-1,.6476968198,.1696475466
.1038504814,.5742011324,-.5859334917e-1
.1006304705,.5841696418,-.3407104748e-1
.972209914e-1,.5939078505,-.9918287865e-2
.936302060e-1,.6034256772,.1389464235e-1
.898654136e-1,.6127319966,.3739467208e-1
.859331634e-1,.6218347670,.6060631711e-1
.818393451e-1,.6307411484,.8355201765e-1
.775892665e-1,.6394575943,.1062524050
.731877210e-1,.6479899278,.1287265238
.686390391e-1,.6563434155,.1509920450
.1052664311,.5811484544,-.8000670140e-1
.1022166737,.5913239101,-.5514029319e-1
.989696376e-1,.6012595706,-.3067157732e-1
.955343316e-1,.6109663855,-.6568065737e-2
.919187890e-1,.6204541202,.1719954325e-1
.881301986e-1,.6297315117,.4065781475e-1
.841750113e-1,.6388064026,.6383096101e-1
.800590318e-1,.6476858474,.8674115114e-1
.757874926e-1,.6563762062,.1094087793
.713651181e-1,.6648832222,.1318526912
.122315532,.5093940153,.1680067103
.117515775,.5174423162,.1899426488
.112578842,.5253238766,.2117130224
.107507697,.5330423017,.2333316235
.102305020,.5406008458,.2548114876
.96973220e-1,.5480024401,.2761649821
.91514466e-1,.5552497187,.2974038889
.85930696e-1,.5623450374,.3185394692
.80223634e-1,.5692904934,.3395825296
.74394805e-1,.5760879397,.3605434791
.126808804,.5178712343,.1521109538
.122109770,.5260419661,.1741750425
.117271233,.5340431282,.1960631182
.112296380,.5418785976,.2177895778
.107188096,.5495518783,.2393679921
.101948980,.5570661313,.2608112010
.96581375e-1,.5644242026,.2821314011
.91087380e-1,.5716286458,.3033402200
.85468874e-1,.5786817424,.3244487857
.79727523e-1,.5855855198,.3454677879
.131081622,.5262724930,.1358439271
.126486893,.5345700086,.1580464811
.121750114,.5426948603,.1800619012
.116874717,.5506512207,.2019052564
.111863809,.5584428633,.2235907116
.106720193,.5660731973,.2451316327
.101446398,.5735452968,.2665406793
.96044699e-1,.5808619275,.2878298892
.90517136e-1,.5880255677,.3090107481
.84865528e-1,.5950384295,.3300942616
.1351253842,.5345915236,.1191879925
.1306388222,.5430205182,.1415402152
.1260074212,.5512734599,.1636934274
.1212348822,.5593548443,.1856634502
.1163245502,.5672687398,.2074651144
.1112794502,.5750188221,.2291123668
.1061023152,.5826084126,.2506183863
.1007956052,.5900405046,.2719956664
.953615362e-1,.5973177876,.2932560957
.898020882e-1,.6044426708,.3144110324
.1389308034,.5428215112,.1021238262
.1345565854,.5513870630,.1246379151
.1300344724,.5597728451,.1469402720
.1253684554,.5679837085,.1690475606
.1205621424,.5760240414,.1909753518
.1156188004,.5838978121,.2127382468
.1105413804,.5916086088,.2343500013
.1053325464,.5991596701,.2558236176
.999946994e-1,.6065539130,.2771714351
.945299934e-1,.6137939575,.2984052080
.1424878276,.5509550198,.8463020058e-1
.1382304866,.5596626373,.1073194752
.1338218936,.5681864048,.1297833495
.1292663576,.5765315613,.1520394271
.1245677796,.5847028475,.1741041093
.1197296866,.5927045501,.1959927285
.1147552696,.6005405488,.2177196880
.1096474116,.6082143477,.2392985590
.1044087146,.6157291095,.2607421847
.990415206e-1,.6230876805,.2820627625
.1457855488,.5589839040,.6668373284e-1
.1416500198,.5678395858,.8956279154e-1
.1373595428,.5765069256,.1122017040
.1329187838,.5849915946,.1346191371
.1283319598,.5932987205,.1568324240
.1236028888,.6014329400,.1788577178
.1187350198,.6093984505,.2007101459
.1137314758,.6171990455,.2224039174
.1085950788,.6248381536,.2439524394
.1033283698,.6323188668,.2653684097
.1488120970,.5668992120,.4825859882e-1
.1448037710,.5759095106,.7134349027e-1
.1406364210,.5847265140,.9417227308e-1
.1363151080,.5933563721,.1167648112
.1318444030,.6018046420,.1391394891
.1272284380,.6100763456,.1613133828
.1224709530,.6181760291,.1833024327
.1175753310,.6261078035,.2051215664
.1125446280,.6338753870,.2267848260
.1073816090,.6414821363,.2483054645
.1515545142,.5746910661,.2932618535e-1
.1476793022,.5838631681,.5263462434e-1
.1436405612,.5928364973,.7566960074e-1
.1394437912,.6016177398,.9845233773e-1
.1350939572,.6102129293,.1210024073
.1305955416,.6186275164,.1433379309
.1259526013,.6268664309,.1654757631
.1211688050,.6349341326,.1874316407
.1162474718,.6428346558,.2092203162
.1111916024,.6505716477,.2308556743
.1539986079,.5823485187,.9854671523e-2
.1502630208,.5916903371,.3340628916e-1
.1463589075,.6008273084,.5666549509e-1
.1422922640,.6097667221,.7965506446e-1
.1380684931,.6185151449,.1023959166
.1336924714,.6270785034,.1249073542
.1291686050,.6354621546,.1472072696
.1245008794,.6436709418,.1693123092
.1196929000,.6517092485,.1912380312
.1147479285,.6595810387,.2129990286
.161048210,.5037579231,.2408950915
.155799896,.5112609948,.2623291702
.150423248,.5186080752,.2836410831
.144920352,.5258016982,.3048424209
.139293069,.5328441270,.3259442785
.133543053,.5397373711,.3469573160
.127671760,.5464832021,.3678918170
.121680463,.5530831650,.3887577343
.115570255,.5595385902,.4095647410
.109342063,.5658506027,.4303222722
.166174214,.5125858189,.2259632155
.161016182,.5201986310,.2474890476
.155728234,.5276535270,.2688843564
.150312617,.5349532392,.2901611132
.144771346,.5421002172,.3113307520
.139106218,.5490966441,.3324042267
.133318824,.5559444547,.3533920760
.127410563,.5626453500,.3743044766
.121382652,.5692008081,.3951512914
.115236132,.5756120954,.4159421148
.171102262,.5213566039,.2107094831
.166037265,.5290825005,.2323348113
.160840616,.5366483725,.2538208146
.155514740,.5440571664,.2751798906
.150061814,.5513115288,.2964238454
.144483786,.5584138282,.3175639632
.138782392,.5653661734,.3386110708
.132959165,.5721704283,.3595755936
.127015449,.5788282272,.3804676114
.120952408,.5853409846,.4012969027
.1758254362,.5300654882,.1951206176
.1708564132,.5379080436,.2168537761
.1657538402,.5455882659,.2384383182
.1605203282,.5531093308,.2598871142
.1551582302,.5604740970,.2812123860
.1496696582,.5676851303,.3024257845
.1440564962,.5747447240,.3235384588
.1383204232,.5816549159,.3445611162
.1324629162,.5884175039,.3655040792
.1264852692,.5950340583,.3863773365
.1803363144,.5387073156,.1791821642
.1754664174,.5466703598,.2010321434
.1704608894,.5544685422,.2227236707
.1653225464,.5621052858,.2442701416
.1600539274,.5695836778,.2656842431
.1546573194,.5769064953,.2869780351
.1491347684,.5840762284,.3081630256
.1434881044,.5910950991,.3292502375
.1377189494,.5979650791,.3502502688
.1318287294,.6046879029,.3711733461
.1846269266,.5472765160,.1628783550
.1798595406,.5553641641,.1848548774
.1749542426,.5632841789,.2066625064
.1699140716,.5710402523,.2283152258
.1647417686,.5786357170,.2498262371
.1594398056,.5860735777,.2712080578
.1540104046,.5933565353,.2924725983
.1484555556,.6004870090,.3136312360
.1427770316,.6074671543,.3346948775
.1369764046,.6142988798,.3556740189
.1886886898,.5557670582,.1461919661
.1840274608,.5639837426,.1683055701
.1792258208,.5720297550,.1902391660
.1742870468,.5799090782,.2120073896
.1692140998,.5876253124,.2336240215
.1640096548,.5951817074,.2551020887
.1586761188,.6025811909,.2764539515
.1532156548,.6098263920,.2976913817
.1476302008,.6169196637,.3188256353
.1419214758,.6238630988,.3398675121
.1925123420,.5641723857,.1291041303
.1879612110,.5725228959,.1513662736
.1832669240,.5806993983,.1734365389
.1784330200,.5887061930,.1953302893
.1734627000,.5965471716,.2170619556
.1683588560,.6042258494,.2386451327
.1631240980,.6117453984,.2600926833
.1577607740,.6191086751,.2814168255
.1522709950,.6263182422,.3026292037
.1466566450,.6333763905,.3237409624
.1960878682,.5724853519,.1115941465
.1916511052,.5809748779,.1340173201
.1870681692,.5892867287,.1562358950
.1823428862,.5974255546,.1782660566
.1774787182,.6053955633,.2001229560
.1724787962,.6132005590,.2218208258
.1673459462,.6208439806,.2433730967
.1620827212,.6283289276,.2647924805
.1566914142,.6356581902,.2860910627
.1511740852,.6428342696,.3072803725
.1994044074,.5806981367,.9363923094e-1
.1950866534,.5893323219,.1162370990
.1906194054,.5977847938,.1386166885
.1860068064,.6060605882,.1607951091
.1812526024,.6141642603,.1827883222
.1763601864,.6220999317,.2046112798
.1713326214,.6298713288,.2262780422
.1661726784,.6374818174,.2478018823
.1608828534,.6449344319,.2691953776
.1554653906,.6522319006,.2904704923
