-.1885322068,.1548823878,-.2028651039
-.1946167628,.1860102231,-.1286043128
-.2024851258,.2149698114,-.5834298177e-1
-.2118872456,.2420650904,.8804907753e-2
-.2226442123,.2675135290,.7348966777e-1
-.2346242719,.2914752763,.1362098546
-.2477286335,.3140704159,.1973621362
-.2618826195,.3353897172,.2572727475
-.2770299485,.3555015938,.3162184032
-.2931289415,.3744567054,.3744408665
-.3101500025,.3922910285,.4321576202
-.1737315629,.975589831e-1,-.4248290655
-.1729486470,.1370343521,-.3323731177
-.1753763805,.1726071202,-.2488856263
-.1802520205,.2052044134,-.1717131737
-.1871078582,.2353947437,-.9922781142e-1
-.1956336903,.2635551662,-.3034070360e-1
-.2056126128,.2899493311,.3572362752e-1
-.2168873523,.3147684082,.9954523806e-1
-.2293410824,.3381544010,.1615759504
-.2428858056,.3602142729,.2221803313
-.2574549865,.3810288982,.2816621125
-.2729987356,.4006589187,.3402821056
-.2894806019,.4191486415,.3982709433
-.1671893285,.1085374524,-.4883805464
-.1637908113,.1511921289,-.3881751628
-.1643546933,.1890304403,-.2995635525
-.1677881239,.2233807661,-.2187328518
-.1734657116,.2550032793,-.1435087947
-.1809907367,.2843801997,-.7250750630e-1
-.1900940656,.3118386639,-.4778885189e-2
-.2005845670,.3376109961,.6036742517e-1
-.2123221873,.3618674333,.1234562894
-.2252022148,.3847352541,.1849022947
-.2391455633,.4063105896,.2450441825
-.2540925290,.4266660113,.3041674938
-.2699986720,.4458555353,.3625202016
-.1646908795,.1159387758,-.5629429109
-.1576510560,.1630195249,-.4514522664
-.1558192934,.2037697864,-.3559304851
-.1574853704,.2402683590,-.2703787346
-.1617646709,.2735905148,-.1917166113
-.1681293381,.3043778708,-.1181083680
-.1762354592,.3330484589,-.4835059182e-1
-.1858454671,.3598910460,.1840098738e-1
-.1967885373,.3851132726,.8277032218e-1
-.2089384590,.4088685499,.1452385217
-.2222004244,.4312721187,.2061903103
-.2365027477,.4524111142,.2659435672
-.2517914807,.4723511113,.3247691015
-.1680722275,.1175860856,-.6547867896
-.1553765118,.1715416687,-.5249458722
-.1502802926,.2162599342,-.4195419857
-.1496983128,.2554910616,-.3276664482
-.1522741254,.2908838358,-.2445752109
-.1572668128,.3233388574,-.1676911436
-.1642197043,.3534112161,-.9542435556e-1
-.1728288897,.3814703207,-.2670732684e-1
-.1828813686,.4077750767,.3922247486e-1
-.1942224521,.4325135106,.1029367722
-.2067371198,.4558254334,.1648818007
-.2203386914,.4778162044,.2254182602
-.2349616369,.4985654783,.2848471669
-.1822779952,.1075349442,-.7813578339
-.1585243479,.1749316392,-.6138866813
-.1485366601,.2255955693,-.4929351806
-.1449350558,.2684971018,-.3921143330
-.1453592058,.3065052622,-.3031090434
-.1486868592,.3409841612,-.2220027975
-.1542793302,.3727101348,-.1465750563
-.1617328630,.4021739551,-.7541782357e-1
-.1707741871,.4297077876,-.7567070714e-2
-.1812095429,.4555471503,.5767619764e-1
-.1928971041,.4798644348,.1208424924
-.2057309002,.5027884506,.1823502364
-.2196309141,.5244164600,.2425408365
-.2362502968+.3390632716e-1*I,.506847205e-1+.4121373520e-1*I,-1.047197551+.1246038346*I
-.1708018263,.1687622048,-.7311825975
-.1520040765,.2301349189,-.5807906056
-.1439796441,.2784124777,-.4661682187
-.1415399686,.3199016661,-.3688432056
-.1427733088,.3569262403,-.2820999677
-.1467180830,.3906550190,-.2025877733
-.1528096645,.4217743156,-.1283434524
-.1606839758,.4507266721,-.5809481235e-1
-.1700912871,.4778156403,.9043101248e-2
-.1808528945,.5032584387,.7371992766e-1
-.1928371842,.5272150442,.1364337752
-.2059454664,.5498054177,.1975810094
-.2199253651+.8936943690e-1*I,.809149115e-1+.1086301176*I,-1.047197551+.3236007355*I
-.2131798307,.1276379464,-.9525636860
-.1638184689,.2261612678,-.6938913439
-.1481898242,.2836818798,-.5542508224
-.1416122526,.3302007528,-.4442197369
-.1400717309,.3705970050,-.3495551852
-.1419473971,.4068408203,-.2645757293
-.1463898396,.4399646735,-.1863244636
-.1528883257,.4705893707,-.1130248778
-.1611084432,.4991213934,-.4350591186e-1
-.1708184083,.5258424812,.2305741523e-1
-.1818511664,.5509556910,.8727680351e-1
-.1940831046,.5746112758,.1496252176
-.2046788900+.1244770086*I,.1115820630+.1513039868*I,-1.047197551+.4439073607*I
-.2235796291+.8031397462e-1*I,.1271316032+.9762304438e-1*I,-1.047197552+.2917568514*I
-.1965425801,.1985193312,-.8771228600
-.1604488593,.2809156016,-.6661631596
-.1469372527,.3358629167,-.5336125664
-.1414148250,.3810992454,-.4268855396
-.1405531148,.4206703893,-.3342013674
-.1429229702,.4563135086,-.2505585396
-.1477529591,.4889662928,-.1732732441
-.1545710007,.5192025641,-.1007024643
-.1630644093,.5474023971,-.3174894378e-1
-.1730147456,.5738313091,.3436789619e-1
-.1842637205,.5986817028,.9823138336e-1
-.1905973307+.1541158074*I,.1427212065+.1873304664*I,-1.047197551+.5410475044*I
-.2094980704+.1195282857*I,.1582707471+.1452887271*I,-1.047197552+.4272770259*I
-.2283988104+.7284172086e-1*I,.1738202884+.8854038890e-1*I,-1.047197552+.2652607079*I
-.1908052908,.2580395891,-.8375135257
-.1603440519,.3335894790,-.6465408604
-.1482218545,.3868479430,-.5185964201
-.1434318544,.4311939922,-.4141388860
-.1430528209,.4701784335,-.3228471999
-.1457788970,.5053885612,-.2401563085
-.1508907230,.5376987672,-.1635644012
-.1579426211,.5676507819,-.9151943388e-1
-.1666369777,.5956063595,-.2297520546e-1
-.1767647164,.6218196355,.4281782295e-1
-.1777872203+.1812541616*I,.1743755061+.2203176118*I,-1.047197551+.6261076416*I
-.1966879586+.1514763754*I,.1899250458+.1841221903*I,-1.047197552+.5325732476*I
-.2155886987+.1162784971*I,.2054745871+.1413385521*I,-1.047197552+.4162948228*I
-.2344894375+.6767468173e-1*I,.2210241275+.8225976232e-1*I,-1.047197551+.2468306654*I
-.1911215047,.3122623304,-.8157091704
-.1634283368,.3844475822,-.6344803400
-.1521191618,.4367178026,-.5092120499
-.1477727118,.4805247096,-.4061186876
-.1476905588,.5191482886,-.3156767017
-.1506377149,.5540896879,-.2335715870
-.1559254979,.5861860157,-.1574085838
-.1631240177,.6159598098,-.8568996457e-1
-.1719447692,.6437617508,-.1740031929e-1
-.1663816847+.2071568416*I,.2065989009+.2518027738*I,-1.047197551+.7037223814*I
-.1852824248+.1803814006*I,.2221484416+.2192567551*I,-1.047197552+.6234314990*I
-.2041831641+.1504809585*I,.2376979824+.1829122436*I,-1.047197552+.5293681905*I
-.2230839029+.1150441859*I,.2532475229+.1398382253*I,-1.047197551+.4121111039*I
-.2419846420+.6564592184e-1*I,.2687970630+.7979376904e-1*I,-1.047197552+.2395715335*I
-.1965984122,.3624885415,-.8080620753
-.1698250385,.4335557676,-.6300576603
-.1588065965,.4854725970,-.5057426913
-.1546214666,.5290834158,-.4031434987
-.1546481446,.5675747091,-.3130116689
-.1576767223,.6024171394,-.2311212973
-.1630295073,.6344344560,-.1551159517
-.1702823125,.6641422640,-.8351750270e-1
-.1566153290,.767525198e-1,-.2449066243
-.1615990460,.1092184458,-.1680005010
-.1685444920,.1392998542,-.9571698532e-1
-.1771472780,.1673667367,-.2698693410e-1
-.1871941070,.1936783608,.3895317215e-1
-.1985300920,.2184229929,.1026756911
-.2110400740,.2417406105,.1646272819
-.2246372730,.2637366965,.2251689429
-.2392560820,.2844909986,.2846018963
-.2548473460,.3040632647,.3431851805
-.2713752190,.3224970645,.4011481935
-.2888150850,.3398223215,.4587000898
-.3071522160,.3560569378,.5160372317
-.1421608681,.939808419e-1,-.2889239334
-.1459077137,.1279502056,-.2089040749
-.1518385546,.1592648853,-.1342815348
-.1595769426,.1883824595,-.6374184404e-1
-.1688657540,.2156154661,.3624740441e-2
-.1795215295,.2411869048,.6848341148e-1
-.1914094148,.2652606923,.1313425266
-.2044284005,.2879596072,.1926054421
-.2185021535,.3093764337,.2526030689
-.2335731035,.3295811508,.3116154206
-.2495985285,.3486256864,.3698865819
-.2665479515,.3665470851,.4276356192
-.2844014285,.3833695912,.4850649686
-.1297815620,.1099211440,-.3375740398
-.1320441140,.1456946937,-.2536425434
-.1367896135,.1784501760,-.1761478767
-.1435377889,.2087713708,-.1034187614
-.1519713180,.2370439883,-.3434220979e-1
-.1618688994,.2635370254,.3187186471e-1
-.1730703550,.2884451801,.9581288905e-1
-.1854568382,.3119129129,.1579389640
-.1989388777,.3340489777,.2186189878
-.2134488200,.3549356087,.2781597368
-.2289358890,.3746345249,.3368241742
-.2453629056,.3931909186,.3948444327
-.2627041020,.4106361102,.4524314865
-.1198163678,.1241939680,-.3918777329
-.1202489429,.1621918851,-.3028962206
-.1235829651,.1966630433,-.2218065904
-.1291805552,.2283827932,-.1463911235
-.1366383851,.2578413915,-.7524327939e-1
-.1456834341,.2853706967,-.7399878030e-2
-.1561221012,.3112060346,.5783755490e-1
-.1678126665,.3355196672,.1209991896
-.1806492376,.3584403107,.1825032176
-.1945518506,.3800651607,.2426908850
-.2094601274,.4004676097,.3018495011
-.2253290832,.4197023354,.3602282859
-.2421263439,.4378086908,.4180498369
-.1127619507,.1362355663,-.4533863342
-.1108514791,.1770814979,-.3576321349
-.1124611662,.2136486166,-.2719258618
-.1166966980,.2470239728,-.1931530972
-.1230255352,.2778548815,-.1194618677
-.1311011778,.3065625158,-.4963995454e-1
-.1406844924,.3334375494,.1716215197e-1
-.1516036342,.3586888617,.8157172109e-1
-.1637316909,.3824707166,.1440720625
-.1769733497,.4048989685,.2050494103
-.1912565440,.4260612153,.2648227011
-.2065270279,.4460233948,.3236634926
-.2227447803,.4648341523,.3818099263
-.1094077416,.1451348102,-.5246575649
-.1043255362,.1898360408,-.4192970687
-.1037528080,.2290559237,-.3274481963
-.1063354553,.2644403894,-.2443752094
-.1113335532,.2968888349,-.1675044395
-.1182909366,.3269557334,-.9524774104e-1
-.1269039829,.3550101449,-.2653856753e-1
-.1369598713,.3813107564,.3938501864e-1
-.1483040323,.4060454501,.1030943578
-.1608215270,.4293539359,.1650354267
-.1744257381,.4513414994,.2255687498
-.1890511799,.4720877386,.2849952158
-.2046487962,.4916522828,.3435736295
-.1111827792,.1492129756,-.6104915871
-.1014052813,.1996214168,-.4902226910
-.979248988e-1,.2423756035,-.3897694276
-.984323668e-1,.2802824866,-.3009990309
-.1018230526,.3146847693,-.2200570946
-.1074662227,.3463491180,-.1447507663
-.1149623264,.3757611928,-.7368646885e-1
-.1240405627,.4032501574,-.5908489372e-2
-.1345087414,.4290496231,.5927700986e-1
-.1462260929,.4533306971,.1223971716
-.1590873985,.4762212754,.1838681306
-.1730131944,.4978179460,.2440297021
-.1879434865,.5181936344,.3031681882
-.1213767174,.1445413939,-.7223285894
-.1033676952,.2049553938,-.5746263867
-.956888729e-1,.2528128583,-.4611067125
-.934606574e-1,.2940450142,-.3644110377
-.948437952e-1,.3308875065,-.2780817279
-.989040161e-1,.3644759568,-.1988640399
-.1050896412,.3954809412,-.1248396979
-.1130436566,.4243364170,-.5476061977e-1
-.1225205763,.4513407754,.1224393465e-1
-.1333444376,.4767079022,.7681465333e-1
-.1453855034,.5005954954,.1394437347
-.1585464289,.5231218807,.2005235003
-.1727536188,.5443765117,.2603771457
-.1552647949,.1126367394,-.9151381266
-.1129370088,.2026106256,-.6818542163
-.982506713e-1,.2589858484,-.5453794848
-.921337888e-1,.3049447469,-.4367958275
-.908872451e-1,.3449836628,-.3429920153
-.929759574e-1,.3809685164,-.2585910165
-.975849789e-1,.4138898901,-.1807567006
-.1042205320,.4443479792,-.1077711616
-.1125576888,.4727377395,-.3849557960e-1
-.1223704673,.4993338555,.2787569175e-1
-.1334956137,.5243347651,.9194203338e-1
-.1458121456,.5478875249,.1541681982
-.1592290388,.5701027762,.2149276680
-.1750289594+.7459682324e-1*I,.995687262e-1+.9067374670e-1*I,-1.047197551+.2715012045*I
-.1396421426,.1811057426,-.8458188598
-.1080669555,.2580096569,-.6509093172
-.956427528e-1,.3116352121,-.5219670950
-.906908181e-1,.3561780954,-.4170095686
-.902042579e-1,.3952932394,-.3254088371
-.928506322e-1,.4306002451,-.2425058180
-.978992194e-1,.4629873194,-.1657590068
-.1048985378,.4930032451,-.9359638233e-1
-.1135476439,.5210138246,-.2496047353e-1
-.1236353865,.5472757180,.4090513406e-1
-.1350083008,.5719754612,.1045682143
-.1475522242,.5952518222,.1664723525
-.1601602999+.1144160620*I,.1303889581+.1390747297*I,-1.047197551+.4099794379*I
-.1790610395+.6459770142e-1*I,.1459384988+.7851963876e-1*I,-1.047197551+.2358160002*I
-.1326798309,.2408393923,-.8042869900
-.1063511984,.3113660258,-.6278390958
-.954771403e-1,.3631073547,-.5039968245
-.913726588e-1,.4066201451,-.4016442725
-.914539152e-1,.4450450966,-.3116677152
-.945234011e-1,.4798378025,-.2298850323
-.999088861e-1,.5118153724,-.1539588338
-.1071890245,.5414899566,-.8242075623e-1
-.1160802695,.5692062120,-.1427212626e-1
-.1263823659,.5952075542,.5120745440e-1
-.1379491195,.6196716822,.1145624369
-.1464895654+.1462354580*I,.1616945568+.1777517634*I,-1.047197551+.5156425794*I
-.1653903043+.1097213806*I,.1772440970+.1333682619*I,-1.047197552+.3939915062*I
-.1842910431+.5635893896e-1*I,.1927936372+.6850527848e-1*I,-1.047197552+.2061882053*I
-.1310631108,.2960168432,-.7782103063
-.1076467092,.3630036101,-.6119100984
-.977816472e-1,.4135184864,-.4913569721
-.942506717e-1,.4563341690,-.3907503733
-.947233356e-1,.4942833583,-.3018819094
-.980876762e-1,.5287176638,-.2208713384
-.1037096486,.5604077780,-.1455142798
-.1111879476,.5898414948,-.7441114043e-1
-.1202507432,.6173492278,-.6602743722e-2
-.1307051897,.6431653848,.5860690336e-1
-.1341313028+.1747735518*I,.1935319334+.2124403171*I,-1.047197551+.6061415560*I
-.1530320421+.1440428587*I,.2090814734+.1750866204*I,-1.047197552+.5085186789*I
-.1719327804+.1069320927*I,.2246310135+.1299778337*I,-1.047197552+.3844466782*I
-.1908335192+.5103112740e-1*I,.2401805538+.6202923022e-1*I,-1.047197551+.1869315943*I
-.1339546827,.3478414966,-.7642295443
-.1119915755,.4130617592,-.6029616491
-.1026728525,.4629125510,-.4841786370
-.9945969267e-1,.5053419238,-.3845333774
-.1001517386,.5430244502,-.2962817448
-.1036824787,.5772564932,-.2157037000
-.1094385287,.6087836342,-.1406667303
-.1170295537,.6380803302,-.6980884019e-1
-.1261901889,.6654691382,-.2192604754e-2
-.1201429600,.822226305e-1,-.1761853259
-.1268902230,.1125449344,-.1034541391
-.1353229710,.1408185015,-.3437597872e-1
-.1452198640,.1673123748,.3183936647e-1
-.1564207000,.1922212823,.9578140320e-1
-.1688066150,.2156897061,.1579082885
-.1822881260,.2378264138,.2185889539
-.1967975680,.2587136531,.2781302044
-.2122841590,.2784131506,.3367950202
-.2287107130,.2969701064,.3948155463
-.2460514570,.3144158483,.4524027667
-.2642906250,.3307695391,.5097541228
-.2834216430,.3460391722,.5670599124
-.1038130952,.1009224241,-.2159500414
-.1095627782,.1324573042,-.1408979148
-.1171484441,.1617605152,-.7002840020e-1
-.1263044232,.1891549812,-.2403052816e-2
-.1368417921,.2148703459,.6266124180e-1
-.1486219878,.2390750323,.1256846015
-.1615413590,.2618950303,.1870783893
-.1755216060,.2834255151,.2471791034
-.1905036340,.3037383182,.3062706988
-.2064434920,.3228868615,.3646000334
-.2233096690,.3409094473,.4223880791
-.2410813140,.3578314216,.4798384858
-.2597471240,.3736665223,.5371445314
-.892672303e-1,.1186701112,-.2594637628
-.938520643e-1,.1516208854,-.1815690668
-.1004676879,.1821031993,-.1085379988
-.1087878103,.2105136655,-.3922710668e-1
-.1185856128,.2371279855,.2717204068e-1
-.1296972936,.2621452630,.9126059938e-1
-.1420014885,.2857130180,.1535045093
-.1554068988,.3079422272,.2142780706
-.1698444844,.3289168095,.2738918520
-.1852623764,.3486998114,.3326114944
-.2016224977,.3673375174,.3906710031
-.2188983115,.3848621829,.4482826065
-.2370733685,.4012938030,.5056444933
-.767323017e-1,.1352179174,-.3073707992
-.799319060e-1,.1698524631,-.2259297333
-.854215788e-1,.2017033897,-.1502549898
-.927889148e-1,.2312719831,-.7890889736e-1
-.1017555790,.2588965667,-.1091035644e-1
-.1121246034,.2848165562,.5445018362e-1
-.1237520025,.3092069691,.1177101247
-.1365302793,.3321984697,.1792925524
-.1503782854,.3538896961,.2395421221
-.1652347264,.3743551516,.2987485437
-.1810538868,.3936504050,.3571627329
-.1978027783,.4118155541,.4150084546
-.2154592571,.4288775145,.4724911628
-.665178234e-1,.1502245412,-.3605831265
-.680292659e-1,.1869110764,-.2746071151
-.721886681e-1,.2203789701,-.1956414821
-.784552550e-1,.2512855437,-.1218057393
-.864779921e-1,.2800574870,-.5187219984e-1
-.960150016e-1,.3069888049,.1501780775e-1
-.1068926572,.3322905445,.7949735841e-1
-.1189828222,.3561184569,.1420536064
-.1321893042,.3785894671,.2030754222
-.1464393725,.3997919792,.2628835874
-.1616782645,.4197925591,.3217509628
-.1778655364,.4386403666,.3799166062
-.1949726368,.4563701061,.4375961585
-.590668200e-1,.1631941294,-.4204563446
-.584502578e-1,.2024672932,-.3284810775
-.610005355e-1,.2378911069,-.2453216283
-.659730130e-1,.2703706933,-.1683878641
-.729091319e-1,.3004634388,-.9608338367e-1
-.815039029e-1,.3285400646,-.2733701078e-1
-.915436546e-1,.3548602909,.3861600863e-1
-.1028732539,.3796126848,.1023488287
-.1153773690,.4029374340,.1643086451
-.1289690931,.4249401752,.2248568241
-.1435827227,.4457007729,.2842948488
-.1591690257,.4652790681,.3428819410
-.1756920957,.4837187070,.4008476277
-.550597738e-1,.1733511009,-.4891535005
-.516269512e-1,.2160474789,-.3888442749
-.521671798e-1,.2539145418,-.3001661120
-.555826807e-1,.2882866609,-.2192887724
-.612458287e-1,.3199267256,-.1440302146
-.687587173e-1,.3493183986,-.7300249695e-1
-.778515154e-1,.3767896630,-.5253172408e-2
-.883326470e-1,.4025733841,.5990957677e-1
-.1000617593,.4268401630,.1230115701
-.1129339273,.4497175375,.1844680428
-.1268699067,.4713018302,.2446181870
-.1418098720,.4916657609,.3037478621
-.1577092854,.5108634652,.3621052666
-.556625761e-1,.1793402535,-.5705237896
-.482104960e-1,.2269221064,-.4577255774
-.461221420e-1,.2679842582,-.3614449369
-.476047837e-1,.3047058007,-.2753897221
-.517418990e-1,.3382007859,-.1963675242
-.579902792e-1,.3691294904,-.1224894320
-.659975540e-1,.3979202280,-.5252320105e-1
-.755210373e-1,.4248679876,.1439254485e-1
-.863865794e-1,.4501844507,.7889258165e-1
-.984656853e-1,.4740258058,.1414651970
-.1116619031,.4965092921,.2025000331
-.1259023094,.5177235487,.2623184138
-.1411319883,.5377353272,.3211935827
-.632891501e-1,.1783017620,-.6728361116
-.492851516e-1,.2338475862,-.5386438708
-.435108135e-1,.2793901168,-.4311316227
-.424852675e-1,.3191604069,-.3379717839
-.447351190e-1,.3549493924,-.2540060673
-.494706311e-1,.3877170153,-.1764866038
-.562105545e-1,.4180482401,-.1037387509
-.646370166e-1,.4463294483,-.3464764573e-1
-.745283744e-1,.4728300500,.3157792752e-1
-.857242268e-1,.4977450154,.9552811952e-1
-.981055709e-1,.5212189946,.1576615163
-.1115828228,.5433608789,.2183473501
-.1260882417,.5642530075,.2778926313
-.856276338e-1,.1609798967,-.8233729378
-.569866026e-1,.2343172935,-.6388141174
-.453887264e-1,.2869384349,-.5125972375
-.408834982e-1,.3309383388,-.4090164532
-.406946738e-1,.3696915778,-.3182697712
-.435622217e-1,.4047297450,-.2359541713
-.487865524e-1,.4369031990,-.1596368602
-.559321442e-1,.4667413272,-.8780073384e-1
-.647072336e-1,.4945987729,-.1941937151e-1
-.749064012e-1,.5207252258,.4624466613e-1
-.863800032e-1,.5453025817,.1097468929
-.990165531e-1,.5684663545,.1715226345
-.1127319629,.5903187535,.2319250402
-.1302552345+.5672935982e-1*I,.1182722482+.6895553162e-1*I,-1.047197551+.2075243184*I
-.773019263e-1,.2211616418,-.7792597422
-.537735011e-1,.2882845760,-.6125707059
-.438675349e-1,.3388491718,-.4918847379
-.403129714e-1,.3816935260,-.3912066100
-.407694230e-1,.4196624216,-.3022924399
-.441214992e-1,.4541116342,-.2212498985
-.497336067e-1,.4858137395,-.1458692141
-.572036232e-1,.5152575235,-.7474799338e-1
-.662592369e-1,.5427739865,-.6925436102e-2
-.767072970e-1,.5685979067,.5829545149e-1
-.884063871e-1,.5929011778,.1214438744
-.1012508283,.6158122548,.1829373666
-.1157746347+.1037544076*I,.1492497109+.1261153018*I,-1.047197551+.3735319645*I
-.1346753738+.4438961253e-1*I,.1647992511+.5395635234e-1*I,-1.047197552+.1628312642*I
-.739486957e-1,.2771373151,-.7494327846
-.534478133e-1,.3405802168,-.5932042820
-.447088411e-1,.3897263110,-.4762908176
-.418385606e-1,.4317389080,-.3776775684
-.427692698e-1,.4691313341,-.2900934187
-.464819558e-1,.5031422205,-.2099855945
-.523851171e-1,.5344905445,-.1352976450
-.601001388e-1,.5636365210,-.6470768255e-1
-.693686051e-1,.5908942575,.2698368025e-2
-.800062298e-1,.6164877585,.6758841161e-1
-.918775951e-1,.6405816255,.1304725852
-.1025273910+.1381963840*I,.1807268963+.1679801280*I,-1.047197551+.4894067604*I
-.1214281308+.9933902096e-1*I,.1962764371+.1207483218*I,-1.047197552+.3582952778*I
-.1403288702+.3349355402e-1*I,.2118259778+.4071200222e-1*I,-1.047197552+.1230945783*I
-.7472500520e-1,.3300923458,-.7305801668
-.5598167620e-1,.3913989108,-.5803740419
-.4798078860e-1,.4396478505,-.4658268921
-.4555545280e-1,.4811196098,-.3685446235
-.4679892650e-1,.5181318652,-.2818294389
-.5075149840e-1,.5518511651,-.2023371749
-.5684942510e-1,.5829627484,-.1281077281
-.6472911070e-1,.6119085735,-.5787054513e-1
-.7414111230e-1,.6389918395,.9258359263e-2
-.8490691220e-1,.6644295415,.7392801938e-1
-.857230115e-1,.857287479e-1,-.1121004059
-.939637805e-1,.1142356690,-.4262451635e-1
-.1036918735,.1409347220,.2390483112e-1
-.1147409105,.1660281444,.8809714780e-1
-.1269877465,.1896656197,.1504239361
-.1403397915,.2119596966,.2112633287
-.1547270265,.2329954801,.2709285794
-.1700968165,.2528369514,.3296872308
-.1864104535,.2715311600,.3877746151
-.2036408625,.2891110156,.4454038530
-.2217711145,.3055970972,.5027736764
-.2407935395,.3209987265,.5600749364
-.2607093425,.3353144380,.6174964325
-.677887078e-1,.1055803768,-.1484549784
-.751982602e-1,.1350976554,-.7720149868e-1
-.842014775e-1,.1626778078,-.9275413239e-2
-.946029679e-1,.1885583343,.5602763975e-1
-.1062598062,.2129129634,.1192416774
-.1190652450,.2358714480,.1807874932
-.1329386900,.2575317522,.2410081493
-.1478192750,.2779678608,.3001922323
-.1636616250,.2972349265,.3585898652
-.1804330390,.3153726995,.4164242650
-.1981116210,.3324077931,.4739005324
-.2166851160,.3483551044,.5312127283
-.2361502800,.3632185764,.5885499794
-.514359031e-1,.1247107854,-.1879733074
-.578935826e-1,.1553850844,-.1145798121
-.660789096e-1,.1839593955,-.4498814673e-1
-.757583496e-1,.2107175869,.2163250941e-1
-.867637046e-1,.2358641050,.8589756759e-1
-.989705732e-1,.2595501634,.1482824678
-.1122854550,.2818894112,.2091680349
-.1266376477,.3029677895,.2688694219
-.1419739763,.3228499336,.3276555089
-.1582552924,.3415834285,.3857625639
-.1754541460,.3592016407,.4434043410
-.1935532720,.3757255560,.5007799565
-.2125446880,.3911648774,.5580804359
-.368281562e-1,.1429450655,-.2310924688
-.421817042e-1,.1749614547,-.1550889711
-.494351479e-1,.2046684876,-.8349193219e-1
-.583033258e-1,.2324127817,-.1529723536e-1
-.685849669e-1,.2584389869,.5021886823e-1
-.801331977e-1,.2829256304,.1136030107
-.928384829e-1,.3060058537,.1752845209
-.1066181696,.3277801233,.2356123924
-.1214098086,.3483243474,.2948793919
-.1371667586,.3676952185,.3533385909
-.1538552607,.3859337719,.4112152457
-.1714525003,.4030677388,.4687157828
-.1899453843,.4191130343,.5260350000
-.241786706e-1,.1600543314,-.2784040034
-.282296624e-1,.1936540007,-.1991628139
-.344077616e-1,.2246681335,-.1251209029
-.423553930e-1,.2535313679,-.5502827626e-1
-.518267345e-1,.2805425067,.1198693881e-1
-.626456051e-1,.3059157003,.7656614121e-1
-.746821174e-1,.3298088291,.1392020005
-.878388184e-1,.3523403484,.2002871587
-.1020420349,.3735998105,.2601450407
-.1172362650,.3936546776,.3190503702
-.1333804651,.4125548394,.3772435160
-.1504455754,.4303356187,.4349410091
-.1684129008,.4470197399,.4923436860
-.137740309e-1,.1757276196,-.3307340130
-.162534835e-1,.2112375226,-.2473851113
-.211699633e-1,.2437851763,-.1703134298
-.280596408e-1,.2739343722,-.9790440634e-1
-.366145199e-1,.3020594869,-.2907667701e-1
-.466190648e-1,.3284225082,.3694069904e-1
-.579169059e-1,.3532135041,.1007248551
-.703918491e-1,.3765737123,.1627256612
-.839563567e-1,.3986095358,.2233063309
-.985442447e-1,.4194014224,.2827696449
-.1141059007,.4390096771,.3413757451
-.1306051032,.4574783272,.3993547944
-.1480169086,.4748376928,.4569164580
-.60164823e-2,.1895214719,-.3892880070
-.65410059e-2,.2274076244,-.3005656362
-.99446086e-2,.2617942072,-.2196573284
-.155981764e-1,.2934459170,-.1443758679
-.231030150e-1,.3228473737,-.7333061318e-1
-.321888291e-1,.3503271279,-.5567548012e-2
-.426637480e-1,.3761184009,.5960611006e-1
-.543872190e-1,.4003920365,.1227168147
-.672541760e-1,.4232757449,.1841802335
-.811852706e-1,.4448659754,.2443358572
-.961205955e-1,.4652355464,.3034697565
-.1120155483,.4844386729,.3618302796
-.1288380710,.5025143215,.4196394213
-.15068366e-2,.2007604216,-.4559390343
.5080623e-3,.2417332871,-.3598759775
-.10269756e-2,.2783911422,-.2739648112
-.52046468e-2,.3118368300,-.1950455078
-.114861642e-1,.3427252567,-.1212444630
-.195215847e-1,.3714817818,-.5133772038e-1
-.290696918e-1,.3983996103,.1553119139e-1
-.399572875e-1,.4236892675,.7999394784e-1
-.520565296e-1,.4475061469,.1425367806
-.652714363e-1,.4699669162,.2035479232
-.795294372e-1,.4911597863,.2633477165
-.947758932e-1,.5111511721,.3222087071
-.1109704620,.5299901098,.3803697323
-.12308717e-2,.2083120823,-.5338842274
.43050725e-2,.2535648402,-.4271151289
.51756018e-2,.2931467036,-.3344053908
.28122180e-2,.3287976898,-.2507451769
-.20126701e-2,.3614566740,-.1734472608
-.88264905e-2,.3916980761,-.1008669315
-.173162793e-1,.4199023088,-.3190598755e-1
-.272634248e-1,.4463350992,.3421672084e-1
-.385095250e-1,.4711889880,.9808488914e-1
-.509369671e-1,.4946069346,.1601527804
-.644571794e-1,.5166965998,.2207866461
-.790031910e-1,.5375393877,.2802914019
-.945247669e-1,.5571963598,.3389286969
-.70779564e-2,.2099589038,-.6294944301
.39037395e-2,.2618310682,-.5052998099
.80683773e-2,.3054169792,-.4027633114
.80278426e-2,.3438914280,-.3126709234
.49888832e-2,.3787212409,-.2308078904
-.3721975e-3,.4107284735,-.1548226351
-.76319359e-2,.4404278546,-.8323950807e-1
-.165055528e-1,.4681655382,-.1505567826e-1
-.267920157e-1,.4941858826,.5045180969e-1
-.383446122e-1,.5186672184,.1138290723
-.510539208e-1,.5417425518,.1755050959
-.648373718e-1,.5635122460,.2358286279
-.796325798e-1,.5840521310,.2950922669
-.239963268e-1,.1997812754,-.7600909105
-.24498566e-2,.2644951103,-.6002614317
.67067887e-2,.3141488937,-.4820020108
.98246758e-2,.3564624597,-.3826440513
.90665208e-2,.3940646297,-.2945776833
.54854782e-2,.4282355303,-.2141299236
-.3111906e-3,.4597132983,-.1391895517
-.79364194e-2,.4889684188,-.6840576305e-1
-.171267775e-1,.5163210981,-.8476298498e-3
-.276947682e-1,.5419992401,.6416326598e-1
-.395027970e-1,.5661700938,.1271439750
-.524479010e-1,.5889588138,.1885037725
-.664522916e-1,.6104599518,.2485776965
-.856073718e-1+.3076880977e-1*I,.1370267654+.3740002781e-1*I,-1.047197551+.1131250256*I
-.190320041e-1,.2564740135,-.7268111373
-.6266332e-3,.3173697852,-.5777583525
.72270427e-2,.3654397856,-.4636812424
.95625012e-2,.4068022971,-.3666666696
.82554315e-2,.4437372515,-.2801273585
.42538822e-2,.4773970178,-.2007601489
-.18839223e-2,.5084601290,-.1266240710
-.97973923e-2,.5373648882,-.5645883891e-1
-.192388911e-1,.5644123012,.1061348726e-1
-.300310653e-1,.5898179438,.7523813374e-1
-.420432268e-1,.6137406718,.1379102970
-.551773466e-1,.6362996388,.1990243487
-.715258139e-1+.9228118988e-1*I,.1681659099+.1121694044*I,-1.047197551+.3337744037*I
-.778748484e-1,.1989722647,-1.000934797
-.179635508e-1,.3103192187,-.7038659843
-.15254490e-2,.3688237398,-.5614940129
.54365568e-2,.4158099000,-.4502495717
.72195518e-2,.4565008826,-.3548716410
.55184827e-2,.4929569231,-.2694156559
.12119945e-2,.5262460319,-.1908221725
-.51749444e-2,.5570063165,-.1172654390
-.133000191e-1,.5856538656,-.4754748851e-1
-.229266347e-1,.6124762655,.1917270934e-1
-.338845966e-1,.6376803915,.8351705324e-1
-.460481290e-1,.6614191245,.1459652887
-.530722855e-1,.876100304e-1,-.5173869328e-1
-.626120675e-1,.1145379787,.1514604306e-1
-.734922065e-1,.1398366994,.7962139557e-1
-.855846385e-1,.1636618553,.1421742905
-.987932255e-1,.1861303076,.2031934395
-.1130452755,.2073304111,.2629995124
-.1282860565,.2273286947,.3218652918
-.1444751515,.2461742864,.3800297807
-.1615840295,.2639018660,.4377085830
-.1795944645,.2805335860,.4951019575
-.1984975825,.2960802359,.5524014631
-.2182934045,.3105417870,.6097958475
-.2389908565,.3239073911,.6674766996
-.337268435e-1,.1083865578,-.8526376348e-1
-.425568011e-1,.1361773104,-.1699257100e-1
-.528045661e-1,.1622446932,.4858416784e-1
-.643221315e-1,.1867686098,.1120167118
-.769991650e-1,.2098831740,.1737368457
-.907524260e-1,.2316895647,.2340952591
-.1055190130,.2522642389,.2933859171
-.1212519270,.2716643272,.3518627385
-.1379171070,.2899312289,.4097515647
-.1554914800,.3070929903,.4672592037
-.1739617160,.3231658150,.5245806710
-.1933235450,.3381548932,.5819053686
-.2135815400,.3520546644,.6394227971
-.158135185e-1,.1286107748,-.1215426813
-.238422012e-1,.1573754903,-.5162170631e-1
-.333844128e-1,.1843004853,.1525841080e-1
-.442667272e-1,.2095965614,.7973008691e-1
-.563611469e-1,.2334193026,.1422800455
-.695715775e-1,.2558855132,.2032968577
-.838253637e-1,.2770835062,.2631010974
-.990678007e-1,.2970797771,.3219654789
-.1152584925,.3159234278,.3801289568
-.1323689280,.3336491140,.4378071023
-.1503808970,.3502789693,.4952001538
-.1692855420,.3658237630,.5524996604
-.1890828980,.3802834487,.6098943699
.5438407e-3,.1481521034,-.1608864422
-.65719972e-2,.1780263971,-.8898411129e-1
-.153214350e-1,.2059150220,-.2055110038e-1
-.254978979e-1,.2320690735,.4515385305e-1
-.369509699e-1,.2566713849,.1086887368
-.495686233e-1,.2798581266,.1704905413
-.632663721e-1,.3017319929,.2309135723
-.779803614e-1,.3223706011,.2902543429
-.936628298e-1,.3418320061,.3487685664
-.1102790868,.3601583747,.4066833294
-.1278055102,.3773784200,.4642062597
-.1462282735,.3935089484,.5215328363
-.1655426335,.4085557250,.5788526142
.151885231e-1,.1668460100,-.2037038929
.91252330e-2,.1979996947,-.1293932078
.12748727e-2,.2269811653,-.5909345111e-1
-.81115385e-2,.2540955382,.8084644800e-2
-.188544659e-1,.2795610410,.7279343107e-1
-.308217301e-1,.3035383423,.1355328136
-.439142332e-1,.3261478955,.1967003760
-.580570710e-1,.3474807487,.2566229994
-.731937817e-1,.3676055317,.3155778512
-.892825437e-1,.3865730795,.3738070136
-.1062936382,.4044195163,.4315281876
-.1242077877,.4211682736,.4889429425
-.1430151419,.4368313251,.5462434809
.279182526e-1,.1844791734,-.2505435374
.230878530e-1,.2171314599,-.1732592546
.162694727e-1,.2473673187,-.1006892428
.77757727e-2,.2755667977,-.3173631915e-1
-.21748199e-2,.3019953987,.3438005033e-1
-.134240259e-1,.3268455118,.9824316153e-1
-.258543185e-1,.3502599933,.1603070149
-.393771883e-1,.3723464283,.2209376778
-.539257115e-1,.3931861635,.2804399382
-.694496908e-1,.4128402146,.3390753528
-.859124219e-1,.4313531966,.3970750739
-.1032885452,.4487559342,.4546494227
-.1215626667,.4650671393,.5119954468
.384645058e-1,.2007651602,-.3021626470
.351085508e-1,.2352096597,-.2211302144
.294933237e-1,.2669079732,-.1457570020
.220206886e-1,.2963485739,-.7464149992e-1
.129628037e-1,.3238622769,-.6823419686e-2
.25127247e-2,.3496837424,.5839391231e-1
-.91881979e-2,.3739847862,.1215394966
-.220343313e-1,.3968938061,.1830307256
-.359459065e-1,.4185077629,.2432082926
-.508626930e-1,.4388998676,.3023591148
-.667398276e-1,.4581246526,.3607321391
-.835450345e-1,.4762213488,.4185497704
-.1012567920,.4932161174,.4760165854
.464565730e-1,.2153018022,-.3596492812
.449139780e-1,.2519504718,-.2737588747
.407304535e-1,.2853890445,-.1948544098
.344441521e-1,.3162716548,-.1210644819
.264046661e-1,.3450232393,-.5116632031e-1
.168530014e-1,.3719367440,.1569583346e-1
.59622189e-2,.3972225272,.8015320870e-1
-.61399335e-2,.4210358694,.1426917432
-.193575418e-1,.4434933549,.2036994668
-.336180864e-1,.4646831331,.2634965783
-.488669680e-1,.4846715704,.3223555241
-.650638771e-1,.5035076636,.3805150712
-.821803753e-1,.5212259802,.4381906646
.513534280e-1,.2274897702,-.4246572223
.521297757e-1,.2669571559,-.3322202820
.496972133e-1,.3025240534,-.2487457416
.448177617e-1,.3351167148,-.1715826984
.379587671e-1,.3653032067,-.9910446552e-1
.294302255e-1,.3934603356,-.3022290182e-1
.194489137e-1,.4198515960,.3583704588e-1
.81720206e-2,.4446680550,.9965516016e-1
-.42836874e-2,.4680516441,.1616830814
-.178302544e-1,.4901092745,.2222852490
-.324011791e-1,.5109217803,.2817653056
-.479465970e-1,.5305497725,.3403840012
-.644300786e-1,.5490375320,.3983719237
.522978220e-1,.2363570252,-.4999165645
.562151932e-1,.2796423791,-.3981351920
.560068707e-1,.3179128802,-.3085194130
.528419485e-1,.3525895822,-.2269874280
.473800727e-1,.3844742964,-.1512457072
.400360169e-1,.4140711882,-.7984844742e-1
.310894991e-1,.4417202592,-.1180989402e-1
.207383606e-1,.4676619890,.5358238764e-1
.91271737e-2,.4920721086,.1168676739
-.36361490e-2,.5150817860,.1784703179
-.174701534e-1,.5367900318,.2387358585
-.323133088e-1,.5572716362,.2979546254
-.481197114e-1,.5765823972,.3563779748
.477406930e-1,.2401046549,-.5905659798
.563256820e-1,.2890635803,-.4741474910
.591039156e-1,.3309642928,-.3758103573
.581087872e-1,.3682784162,-.2884057256
.543468268e-1,.4022294084,-.2084247544
.484037337e-1,.4335291953,-.1338311419
.406549987e-1,.4626341919,-.6331369112e-1
.313571758e-1,.4898562454,.4035432450e-2
.206933588e-1,.5154179096,.6888022204e-1
.87981534e-2,.5394827988,.1317282467
-.42276090e-2,.5621734772,.1929823289
-.183077275e-1,.5835825662,.2529730039
-.333847333e-1,.6037799212,.3119800201
.341090620e-1,.2344908424,-.7089372631
.509690542e-1,.2935081777,-.5651374835
.581273356e-1,.3407329154,-.4532716769
.600331313e-1,.3815731646,-.3575312912
.584200970e-1,.4181362133,-.2718341992
.541819691e-1,.4515084145,-.1930680008
.478510072e-1,.4823367402,-.1193816972
.397735578e-1,.5110421786,-.4956358905e-1
.301886610e-1,.5379152893,.1723552031e-1
.192681012e-1,.5631648778,.8164270162e-1
.71387496e-2,.5869451572,.1441411353
-.61041123e-2,.6093719472,.2051169674
-.203884396e-1,.6305328172,.2648890693
-.57255555e-2,.1988182838,-.9165316346
.368475741e-1,.2890903901,-.6823654531
.515731892e-1,.3455133534,-.5457590803
.577095596e-1,.3914959397,-.4371143437
.589686147e-1,.4315500633,-.3432739941
.568890001e-1,.4675459756,-.2588483618
.522871069e-1,.5004760144,-.1809962560
.456574280e-1,.5309412435,-.1079973024
.373252934e-1,.5593371081,-.3871131512e-1
.275169300e-1,.5859385912,.2766817099e-1
.163957536e-1,.6109443272,.9174106083e-1
.40828601e-2,.6345015082,.1539724547
-.93306472e-2,.6567208752,.2147360775
-.21983924e-1,.881139037e-1,.5556331849e-2
-.32677492e-1,.1136394045,.7034985458e-1
-.44599788e-1,.1376713661,.1331569272
-.57650634e-1,.1603315547,.1943783913
-.71754318e-1,.1817119998,.2543434015
-.86853752e-1,.2018820934,.3133307315
-.102906605,.2208932889,.3715835940
-.119882730,.2387822317,.4293204592
-.137762471,.2555728134,.4867433853
-.156535628,.2712774316,.5440448190
-.176200938,.2858976229,.6014135675
-.196766010,.2994241382,.6590404482
-.218247710,.3118364754,.7171241212
-.13719226e-2,.1096460084,-.2555805967e-1
-.114476092e-1,.1359225562,.4032947396e-1
-.228096392e-1,.1606355291,.1040100475
-.353435575e-1,.1839240518,.1659281514
-.489630975e-1,.2058929822,.2264432780
-.636030445e-1,.2266215908,.2858555931
-.792145545e-1,.2461692475,.3444233870
-.957620405e-1,.2645792085,.4023755389
-.1132211055,.2818811287,.4599208593
-.1315772235,.2980926656,.5172555089
-.1508249865,.3132203922,.5745692854
-.1709678355,.3272601263,.6320513619
-.1920182315,.3401967220,.6898959768
.179229486e-1,.1307553477,-.5912776221e-1
.85372557e-2,.1578705937,.8051715762e-2
-.22050296e-2,.1833368781,.7276160426e-1
-.141717087e-1,.2073148900,.1355018637
-.272636697e-1,.2299251025,.1966701263
-.414059978e-1,.2512585756,.2565933000
-.565422231e-1,.2713839483,.3155485722
-.726305176e-1,.2903520647,.3737780419
-.896411563e-1,.3081990554,.4314994186
-.1075548580,.3249483577,.4889142782
-.1263617660,.3406119508,.5462148266
-.1460609530,.3551909643,.6035898427
-.1666603670,.3686757354,.6612303331
.358036317e-1,.1513401890,-.9538116970e-1
.271935019e-1,.1793981457,-.2666606244e-1
.171401894e-1,.2057018884,.3926221947e-1
.57983529e-2,.2304394079,.1029753050
-.67170058e-2,.2537504901,.1649193648
-.203192230e-1,.2757404772,.2254550580
-.349427789e-1,.2964890087,.2848833675
-.505385887e-1,.3160557487,.3434631650
-.670708664e-1,.3344841960,.4014237323
-.845150431e-1,.3518042135,.4589741447
-.1028564364,.3680336487,.5163107198
-.1220894923,.3831792520,.5736233120
-.1422175053,.3972370197,.6311010603
.521497225e-1,.1712760823,-.1346131618
.444189573e-1,.2004029221,-.6405707890e-1
.351367832e-1,.2276439978,.3322377353e-2
.244869305e-1,.2532226345,.6819127682e-1
.126044360e-1,.2773029748,.1310585648
-.4095599e-3,.3000079549,.1923279898
-.144786265e-1,.3214304780,.2523307407
-.295451164e-1,.3416406157,.3113470259
-.455662481e-1,.3606903695,.3696210666
-.625114928e-1,.3786168477,.4273720238
-.803608605e-1,.3954443487,.4848023934
-.991038414e-1,.4111856470,.5421048480
-.1187388736,.4258426410,.5994682231
.668099724e-1,.1904072530,-.1772090909
.600876628e-1,.2207598884,-.1044212126
.516762832e-1,.2490594298,-.3529902656e-1
.417982042e-1,.2755761718,.3095110046e-1
.306143060e-1,.3005056681,.9492087073e-1
.182439236e-1,.3239929716,.1570699029
.47768842e-2,.3461472693,.2177681444
-.97188888e-2,.3670511234,.2773231080
-.251924066e-1,.3867665114,.3359982768
-.416063151e-1,.4053388383,.3940261461
-.589346956e-1,.4227996082,.4516179336
-.771616531e-1,.4391681421,.5089712206
-.962804890e-1,.4544525819,.5662763626
.795908271e-1,.2085333522,-.2236820270
.740422364e-1,.2403126632,-.1481489842
.666255174e-1,.2698212312,-.7691120323e-1
.576160926e-1,.2973938383,-.8997402877e-2
.472090875e-1,.3232676608,.5629590029e-1
.355472466e-1,.3476162095,.1195021533
.227371913e-1,.3705690828,.1810417613
.88594214e-2,.3922241306,.2412575154
-.60252686e-2,.4126552495,.3004378129
-.218715624e-1,.4319175216,.3588326417
-.386468067e-1,.4500506383,.4166651278
-.563291484e-1,.4670811619,.4741403105
-.749063717e-1,.4830239417,.5314522191
.902380849e-1,.2253880451,-.2747334062
.860822771e-1,.2588603085,-.1957586524
.798186273e-1,.2897704520,-.1219160812
.717983846e-1,.3185454267,-.5197727109e-1
.622635578e-1,.3454793980,.1491688871e-1
.513878568e-1,.3707835137,.7939974382e-1
.392994760e-1,.3946135951,.1419586315
.260946509e-1,.4170866188,.2029825471
.118461418e-1,.4382910265,.2627923600
-.33912632e-2,.4582934139,.3216609920
-.195771010e-1,.4771429643,.3798275441
-.366828029e-1,.4948744043,.4375076880
-.546901092e-1,.5115099277,.4949017228
.984057169e-1,.2406022816,-.3313578633
.959459303e-1,.2761360874,-.2479562910
.910449839e-1,.3087026225,-.1708462982
.841681810e-1,.3388674690,-.9840824517e-1
.756243551e-1,.3670060186,-.2955793578e-1
.656295617e-1,.3933808923,.3647729785e-1
.543405130e-1,.4181825759,.1002756982
.418736449e-1,.4415525997,.1622878792
.283166690e-1,.4635975782,.2228775664
.137359030e-1,.4843981216,.2823479022
-.18189352e-2,.5040146635,.3409592839
-.183115363e-1,.5224913375,.3989420519
-.357168825e-1,.5398585545,.4565059898
.1035984391,.2536359942,-.3950396306
.1032788080,.2917711973,-.3057390674
.1000300593,.3263460070,-.2244266642
.945009645e-1,.3581490150,-.1488467736
.871005917e-1,.3876774525,-.7757317248e-1
.781053253e-1,.4152672692,-.9631343387e-2
.677108981e-1,.4411563808,.5568420095e-1
.560604661e-1,.4655187966,.1189082142
.432609384e-1,.4884844670,.1804619870
.293930300e-1,.5101515012,.2406889247
.145177012e-1,.5305939986,.2998778600
-.13196005e-2,.5498672010,.3582790867
-.180861100e-1,.5680109350,.4161159415
.1050535972,.2636365068,-.4681629490
.1075773065,.3052278403,-.3705872297
.1064032794,.3423245108,-.2836796685
.1025041135,.3761087259,-.2040508032
.964496266e-1,.4072731117,-.1297194480
.886067170e-1,.4362636379,-.5940377768e-1
.792268051e-1,.4633859110,.7786826926e-2
.684896856e-1,.4888584737,.7250556318e-1
.565277142e-1,.5128422085,.1352528938
.434401153e-1,.5354577228,.1964267844
.293018881e-1,.5567961805,.2563543825
.141695681e-1,.5769262995,.3153130437
-.19149637e-2,.5958989895,.3735449829
.1014555194,.2690939345,-.5550193970
.1080735250,.3156619571,-.4448609227
.1096396711,.3560893555,-.3501211290
.1077825043,.3923556570,-.2650912873
.1033544902,.4254970487,-.1868037834
.968678566e-1,.4561361522,-.1134769422
.886578469e-1,.4846804613,-.4393687068e-1
.789567514e-1,.5114123306,.2264310054e-1
.679319577e-1,.5365352204,.8687574799e-1
.557073062e-1,.5601996625,.1492347556
.423758923e-1,.5825188155,.2100997478
.280081122e-1,.6035782475,.2697850290
.126569017e-1,.6234423015,.3285588834
.900325440e-1,.2667470898,-.6650356245
.1034619749,.3215945188,-.5327585506
.1089419734,.3667792733,-.4261635502
.1097759793,.4063167420,-.3335596632
.1073857866,.4419351405,-.2499714486
.1025397621,.4745684338,-.1727258112
.957084485e-1,.5047885722,-.1001850467
.872036564e-1,.5329745686,-.3125485912e-1
.772432857e-1,.5593912836,.3484353473e-1
.659852678e-1,.5842306858,.9869231172e-1
.535468881e-1,.6076353378,.1607447174
.400164780e-1,.6297126068,.2213663020
.254608280e-1,.6505436798,.2808614859
.7698883e-2,.874279938e-1,.6027536271e-1
-.4037027e-2,.1116865098,.1233668650
-.16915474e-1,.1345562516,.1848149736
-.30857340e-1,.1561333882,.2449585209
-.45802899e-1,.1764905203,.3040831104
-.61707689e-1,.1956816899,.3624367632
-.78539773e-1,.2137457166,.4202412468
-.96277925e-1,.2307084018,.4777007261
-.114910501,.2465838996,.5350087538
-.134434843,.2613754402,.5923543315
-.154857146,.2750754921,.6499275840
-.176192775,.2876653821,.7079255256
-.198467051,.2991143290,.7665584202
.294653832e-1,.1095843186,.3125922882e-1
.182756078e-1,.1345066707,.9521936997e-1
.5899836e-2,.1579874245,.1573607147
-.7572224e-2,.1801356195,.2180528534
-.22072739e-1,.2010337097,.2776030550
-.37550792e-1,.2207435851,.3362746285
-.53969086e-1,.2393105804,.3942999461
-.71301755e-1,.2567661378,.4518901457
-.89532948e-1,.2731295233,.5092427593
-.108656009,.2884088280,.5665481222
-.128673140,.3026013738,.6239951567
-.149595515,.3156935813,.6817770404
-.171443843,.3276602758,.7400972302
.500061057e-1,.1314210545,.1124550000e-4
.394212263e-1,.1570786683,.6499275820e-1
.275978415e-1,.1812308572,.1279499975
.146385369e-1,.2040023158,.1892910918
.6208191e-3,.2254872546,.2493502802
-.143968303e-1,.2457567590,.3084099252
-.303709550e-1,.2648636503,.3667157651
-.472704607e-1,.2828457253,.4244880013
-.650748585e-1,.2997278882,.4819297912
-.837731805e-1,.3155234697,.5392341519
-.1033634225,.3302349079,.5965899771
-.1238524395,.3438538685,.6541876973
-.1452562955,.3563608271,.7122250767
.692431350e-1,.1528561687,-.3363969299e-1
.593312478e-1,.1793318169,.3254797212e-1
.481169098e-1,.2042243124,.9646793734e-1
.357186104e-1,.2276776821,.1585771942
.222255598e-1,.2498003632,.2192438747
.77052152e-2,.2706743505,.2787742159
-.77918038e-2,.2903611720,.3374307995
-.242284467e-1,.3089058648,.3954454939
-.415790561e-1,.3263396155,.4530290962
-.598279693e-1,.3426814615,.5103789366
-.789687087e-1,.3579392775,.5676852682
-.990036518e-1,.3721101731,.6251370418
-.1199441530,.3851803468,.6829275771
.870810322e-1,.1737917349,-.6991240688e-1
.779225933e-1,.2011832115,-.2291873509e-2
.673830343e-1,.2268959140,.6276859673e-1
.556008484e-1,.2510981799,.1257888995
.426796370e-1,.2739159420,.1871802544
.286976638e-1,.2954443288,.2472790492
.137139957e-1,.3157551375,.3063691664
-.22274403e-2,.3349017628,.3646974135
-.190951523e-1,.3529224837,.4224847262
-.368683048e-1,.3698426253,.4799347303
-.555356111e-1,.3856759075,.5372406933
-.750947587e-1,.4004251408,.5945915555
-.955522916e-1,.4140823711,.6521775990
.1034020858,.1941085680,-.1090881997
.950941958e-1,.2225339036,-.3975192629e-1
.853071446e-1,.2491612911,.2666725186e-1
.742051301e-1,.2741903183,.9077177773e-1
.619097886e-1,.2977688356,.1530284420
.485126182e-1,.3200080605,.2138121313
.340828093e-1,.3409920949,.2734338261
.186723483e-1,.3607841295,.3321594618
.23194098e-2,.3794305668,.3902232464
-.149493865e-1,.3969637623,.4478375436
-.331175167e-1,.4134038017,.5052006269
-.521776927e-1,.4287595439,.5625031445
-.721314935e-1,.4430290692,.6199339343
.1180593713,.2136583501,-.1515327594
.1107220664,.2432634480,-.8012064984e-1
.1017813892,.2709196196,-.1207048183e-1
.914354358e-1,.2968676513,.5333100980e-1
.798289474e-1,.3212834816,.1166236491
.670699578e-1,.3442984267,.1782321606
.532400104e-1,.3660116035,.2385023350
.384007039e-1,.3864978862,.2977246861
.225979966e-1,.4058131390,.3561506958
.58650815e-2,.4239977075,.4140045190
-.117757216e-1,.4410787223,.4714918652
-.303117684e-1,.4570715526,.5288071315
-.497394428e-1,.4719805939,.5861395361
.1308662808,.2322516399,-.1977297878
.1246521146,.2632219323,-.1237720137
.1166738843,.2920479745,-.5374428760e-1
.1071757990,.3190266052,.1321985730e-1
.963329948e-1,.3443707072,.7775841838e-1
.842746434e-1,.3682372899,.1403618092
.710976838e-1,.3907441846,.2014211310
.568754039e-1,.4119804745,.2612587289
.416630047e-1,.4320132568,.3201485655
.255012848e-1,.4508921230,.3783304738
.84190974e-2,.4686521450,.4360206212
-.95650462e-2,.4853158234,.4934196171
-.284420044e-1,.5008942700,.5507191889
.1415800009,.2496387702,-.2483349764
.1366893616,.2822178332,-.1711995509
.1298210993,.3123930600,-.9874223385e-1
.1212846038,.3405405206,-.2987693812e-1
.1112962768,.3669232540,.3617014574e-1
.1000130586,.3917320250,.9997799945e-1
.875515441e-1,.4151085556,.1619977269
.739995610e-1,.4371596031,.2225933985
.594235161e-1,.4579658854,.2820683956
.438731973e-1,.4775879203,.3406832830
.273849710e-1,.4960699125,.3986685221
.99839057e-2,.5134423327,.4562339724
-.83148656e-2,.5297235750,.5135764100
.1498739656,.2654776250,-.3042677062
.1465810271,.2999987221,-.2230708208
.1410164517,.3317586038,-.1475761591
.1335863252,.3612508750,-.7636773263e-1
.1245652852,.3888093629,-.8476907274e-2
.1141479580,.4146706399,.5679816580e-1
.1024767548,.4390078078,.1199898592
.896580582e-1,.4619501774,.1815178565
.757721924e-1,.4835953846,.2417244447
.608798172e-1,.5040171620,.3008976645
.450261399e-1,.5232704593,.3592872536
.282437235e-1,.5413948585,.4171161650
.105543413e-1,.5584168245,.4745893267
.1552883607,.2792751371,-.3668787715
.1539884617,.3162188085,-.2803196417
.1499924379,.3498852921,-.2009383327
.1438591341,.3809538740,-.1267917256
.1359494786,.4098632696,-.5661837753e-1
.1265113109,.4369147315,.1046033175e-1
.1157221156,.4623239954,.7509005621e-1
.1037126709,.4862500256,.1377662773
.905810704e-1,.5088120554,.1988835593
.764014670e-1,.5301002192,.2587666698
.612297369e-1,.5501824348,.3176912847
.451072267e-1,.5691089618,.3758984395
.280632542e-1,.5869154348,.4336051186
.1571317659,.2902698855,-.4382895638
.1584370621,.3303802177,-.3443140977
.1563910474,.3664169695,-.2597974398
.1518154699,.3993789964,-.1818796192
.1452074713,.4298705780,-.1088311212
.1368938649,.4582889643,-.3950671280e-1
.1271017899,.4849102454,.2690310268e-1
.1159952583,.5099337820,.9100016506e-1
.1036957796,.5335072705,.1532508684
.902947591e-1,.5557418150,.2140298233
.758613170e-1,.5767214330,.2736478185
.604473838e-1,.5965092480,.3323706530
.440910893e-1,.6151516050,.3904324380
.1542551212,.2971602229,-.5221841478
.1592175320,.3417158403,-.4171942392
.1597110325,.3808394195,-.3255735395
.1570697961,.4161526703,-.2426568290
.1520252814,.4485446950,-.1659000282
.1450293477,.4785647349,-.9372981837e-1
.1363831521,.5065788532,-.2508800065e-1
.1262979821,.5328438727,.4078228180e-1
.1149273898,.5575464383,.1044490928
.1023856012,.5808253948,.1663562095
.887587138e-1,.6027853948,.2268626321
