-.1537819490,.4674563124,.1606134630e-1
-.1646798040,.4927334986,.8050678629e-1
-.1767884160,.5165389886,.1430357848
-.1900120210,.5389891851,.2040359238
-.2042782120,.5601721000,.2638270879
-.2195324790,.5801539920,.3226814981
-.2357345840,.5989837700,.3808377677
-.2528561490,.6166959270,.4385112354
-.2708790850,.6333124530,.4959019943
-.2897946430,.6488439810,.5532015257
-.1244045344,.3974556191,-.2549630717
-.1291137241,.4302552383,-.1773782114
-.1358319083,.4606128868,-.1045809565
-.1442397557,.4889167225,-.3545148572e-1
-.1541147250,.5154372435,.3080439389e-1
-.1652958246,.5403701416,.9477875103e-1
-.1776636405,.5638605645,.1569314474
-.1911282895,.5860177685,.2176325973
-.2056218045,.6069243675,.2771898299
-.2210931635,.6266423795,.3358667123
-.2375049835,.6452172455,.3938957979
-.2548313225,.6626804965,.4514883426
-.2730562635,.6790514815,.5088419522
-.1221607467,.4117539291,-.3227330942
-.1248903638,.4469597526,-.2400516156
-.1300050022,.4792665398,-.1634665887
-.1370592399,.5092157102,-.9142685017e-1
-.1457556114,.5371688401,-.2288669395e-1
-.1558851312,.5633799514,.4290310833e-1
-.1672957783,.5880338295,.1065057032
-.1798743986,.6112680165,.1683615554
-.1935356803,.6331862095,.2288273758
-.2082151364,.6538667935,.2882013688
-.2238645020,.6733684355,.3467404444
-.2404486698,.6917338095,.4046725182
-.2579436570,.7089920655,.4622057660
-.1239604950,.4229780088,-.4001526303
-.1240958812,.4613371656,-.3103298836
-.1272059892,.4960804963,-.2286539973
-.1326239708,.5280185641,-.1528063515
-.1399312898,.5576601114,-.8132821420e-1
-.1488460321,.5853478065,-.1322643038e-1
-.1591689711,.6113238125,.5221599976e-1
-.1707546054,.6357649915,.1155413259
-.1834943661,.6588033095,.1771759113
-.1973063136,.6805383655,.2374666892
-.2121285456,.7010454035,.2967049781
-.2279148594,.7203805815,.3551428241
-.2446318606,.7385844945,.4130047765
-.1311637129,.4296362992,-.4914587999
-.1276281890,.4724575096,-.3908384123
-.1280977256,.5104105020,-.3019611290
-.1314597005,.5448476830,-.2209443920
-.1370797693,.5765401102,-.1455827773
-.1445564704,.6059757705,-.7447614756e-1
-.1536178807,.6334851875,-.6665018845e-2
-.1640710945,.6593028435,.5854679637e-1
-.1757748623,.6836004285,.1216879755
-.1886236229,.7065062555,.1831756907
-.2025376605,.7281172185,.2433504856
-.2174567851,.7485064815,.3024991688
-.2333361671,.7677285345,.3608706127
-.1464769900,.4286396836,-.6055407391
-.1370022661,.4786800987,-.4862530941
-.1336978344,.5212204139,-.3863322156
-.1343266965,.5589797419,-.2979032480
-.1378094284,.5932701402,-.2172006549
-.1435267501,.6248443562,-.1420714204
-.1510851860,.6541806652,-.7114279322e-1
-.1602175174,.6816038762,-.3471108219e-2
-.1707338308,.7073448342,.6162998746e-1
-.1824948955,.7315727732,.1246827394
-.1953965855,.7544142632,.1860999577
-.2093602478,.7759649072,.2462191440
-.2243265144,.7962968682,.3053249632
-.1778438631,.4105865635,-.7699166268
-.1552982446,.4765148779,-.6066343981
-.1457570142,.5266361314,-.4871314244
-.1424137978,.5692235891,-.3870933138
-.1430158550,.6070154996,-.2985890348
-.1464782407,.6413306292,-.2178335995
-.1521791601,.6729247822,-.1426652424
-.1597238010,.7022778592,-.7170663014e-1
-.1688441556,.7297156292,-.4011447259e-2
-.1793498085,.7554695442,.6110831010e-1
-.1911011893,.7797092552,.1241759663
-.2039939305,.8025616222,.1856050651
-.2179492005,.8241224672,.2457336200
-.2435104590+.5882357010e-1*I,.3536263379+.7150108088e-1*I,-1.047197552+.2150712345*I
-.1921646839,.4545617502,-.7853966519
-.1679727078,.5224912412,-.6164018798
-.1578279407,.5733461040,-.4949395140
-.1541362398,.6163571524,-.3938450400
-.1544986307,.6544403800,-.3046653616
-.1577796375,.6889759790,-.2234373039
-.1633346301,.7207475080,-.1479196364
-.1707567186,.7502495500,-.7669361304e-1
-.1797707948,.7778165030,-.8789016154e-2
-.1901819330,.8036853020,.5649698486e-1
-.2018475226,.8280292940,.1196974064
-.2146610378,.8509779610,.1812323638
-.2368675341+.1169301030*I,.3877794116+.1421305904*I,-1.047197552+.4185006791*I
-.2557682728+.6873007770e-1*I,.4033289519+.8354261462e-1*I,-1.047197551+.2506019789*I
-.2135018165,.4932282924,-.8198766982
-.1852964927,.5660360787,-.6368494677
-.1738299671,.6184975620,-.5110644028
-.1693968042,.6624098699,-.4077049732
-.1692563398,.7011043270,-.3170965112
-.1721599548,.7360986520,-.2348763376
-.1774130202,.7682371800,-.1586289548
-.1845825729,.7980461830,-.8684606649e-1
-.1933783289,.8258785080,-.1850625107e-1
-.2035957966,.8519827170,.4712486869e-1
-.2150859501,.8765399540,.1106008220
-.2325799628+.1592919119*I,.4228868099+.1936221119*I,-1.047197552+.5575634242*I
-.2514807021+.1258123851*I,.4384363509+.1529271602*I,-1.047197551+.4483754084*I
-.2703814416+.8226284597e-1*I,.4539858914+.9999193172e-1*I,-1.047197552+.2986354891*I
-.2467283549,.5212603532,-.8897600817
-.2086577699,.6060595362,-.6717419045
-.1947352300,.6615063493,-.5378215628
-.1890022930,.7069985550,-.4304385268
-.1880035962,.7467362080,-.3373567436
-.1902730825,.7825013290,-.2534439297
-.1950240364,.8152501810,-.1759628001
-.2017767184,.8455658980,-.1032439157
-.2102141082,.8738338230,-.3417531063e-1
-.2201150889,.9003227270,.3203248497e-1
-.2311780512+.1972963099*I,.4591633982+.2398171243*I,-1.047197552+.6745892814*I
-.2500787900+.1695067369*I,.4747129385+.2060384110*I,-1.047197551+.5897542994*I
-.2689795306+.1379232012*I,.4902624799+.1676480694*I,-1.047197552+.4885096262*I
-.2878802696+.9897808932e-1*I,.5058120204+.1203096031*I,-1.047197552+.3570461920*I
-.3067810082+.3246677369e-1*I,.5213615606+.3946393272e-1*I,-1.047197551+.1193390736*I
-.2408000458,.6400862981,-.7291177399
-.2221883638,.7012328441,-.5793610703
-.2142446148,.7494123300,-.4649964393
-.2118541192,.7908417400,-.3678179882
-.2131222286,.8278240520,-.2811709634
-.2170937656,.8615203000,-.2017271485
-.2232071290,.8926131190,-.1275338670
-.2310998896,.9215430510,-.5732454754e-1
-.2334746948+.2342499679*I,.4969385400+.2847349435*I,-1.047197552+.7811750652*I
-.2523754335+.2096787930*I,.5124880803+.2548682498*I,-1.047197551+.7110921807*I
-.2712761729+.1831418065*I,.5280376204+.2226120768*I,-1.047197552+.6318821294*I
-.2901769125+.1536236390*I,.5435871616+.1867322268*I,-1.047197552+.5394700037*I
-.3090776508+.1189247687*I,.5591367015+.1445551417*I,-1.047197551+.4252411641*I
-.3279783902+.7189961631e-1*I,.5746862421+.8739524433e-1*I,-1.047197552+.2619067494*I
-.2892560914,.6602775956,-.8332595068
-.2593523937,.7351497845,-.6442540256
-.2473866754,.7882180450,-.5168257967
-.2426811792,.8324613790,-.4126287678
-.2423584405,.8713773930,-.3214986050
-.2451263224,.9065367040,-.2389187828
-.2502713605,.9388065410,-.1624080682
-.2408372683+.2722430547*I,.5367662559+.3309162065*I,-1.047197552+.8835418650*I
-.2597380083+.2498057611*I,.5523157975+.3036432830*I,-1.047197551+.8239530225*I
-.2786387465+.2262147954*I,.5678653367+.2749680503*I,-1.047197552+.7585983919*I
-.2975394862+.2010644781*I,.5834148780+.2443973988*I,-1.047197552+.6857822649*I
-.3164402251+.1736787033*I,.5989644183+.2111095091*I,-1.047197551+.6027468717*I
-.3353409649+.1427768734*I,.6145139594+.1735477932*I,-1.047197551+.5043945308*I
-.3542417034+.1053079115*I,.6300634992+.1280036129*I,-1.047197552+.3788733250*I
-.3731424423+.4772685817e-1*I,.6456130398+.5801283302e-1*I,-1.047197551+.1749538310*I
-.3142583890,.7557113608,-.7565267079
-.2930659148,.8199949040,-.5979178312
-.2840489183,.8694789430,-.4801089664
-.2810134825,.9116922880,-.3809993052
-.2818289781,.9492247600,-.2930933976
-.887561635e-1,.3854830606,-.1177252775
-.968709015e-1,.4141431762,-.4798560931e-1
-.1064884585,.4409765865,.1875169843e-1
-.1174382975,.4661905855,.8310967006e-1
-.1295944055,.4899383434,.1455687914
-.1428621185,.5123349270,.2065133626
-.1571698555,.5334673410,.2662609621
-.1724637555,.5534010588,.3250821915
-.1887041065,.5721843478,.3832145209
-.2058629805,.5898511558,.4408725169
-.2239226875,.6064229858,.4982557966
-.2428748485,.6219100218,.5555556146
-.2627199715,.6363116468,.6129607290
-.806502051e-1,.4041195485,-.1724577202
-.874880152e-1,.4343317918,-.9993163616e-1
-.959983799e-1,.4625110149,-.3101286412e-1
-.1059636632,.4889217582,.3507650390e-1
-.1172261088,.5137557787,.9891808266e-1
-.1296685535,.5371554903,.1609647418
-.1432027525,.5592281545,.2215817676
-.1577619845,.5800548725,.2810734001
-.1732962125,.5996964665,.3397008102
-.1897688615,.6181973925,.3976948796
-.2071546875,.6355883375,.4552657502
-.2254383965,.6518878875,.5126103618
-.2446138605,.6671034965,.5699188120
-.752122272e-1,.4211478989,-.2327659403
-.805214106e-1,.4532182136,-.1566548906
-.877377957e-1,.4829702918,-.8497585838e-1
-.965739692e-1,.5107534885,-.1671712089e-1
-.1068272420,.5368141758,.4884974611e-1
-.1183497929,.5613320337,.1122744118
-.1310314185,.5844410162,.1739882581
-.1447889738,.6062421872,.2343416974
-.1595596318,.6268119132,.2936285026
-.1752964502,.6462072552,.3521024522
-.1919654193,.6644695512,.4099892923
-.2095435065,.6816267982,.4674957695
-.2280174215,.6976951512,.5248168634
-.729664705e-1,.4360462558,-.3001004626
-.763839257e-1,.4704159979,-.2192282117
-.820486473e-1,.5020541497,-.1439734153
-.895628588e-1,.5314442154,-.7294857762e-1
-.986568043e-1,.5589140854,-.5201508965e-2
-.1091389572,.5846965658,.5995944869e-1
-.1208689960,.6089622178,.1230600105
-.1337420206,.6318385518,.1845153431
-.1476788025,.6534218688,.2446645877
-.1626195304,.6737848728,.3037935689
-.1785196770,.6929816858,.3621504619
-.1953472476,.7110511988,.4199571415
-.2130809672,.7280192728,.4774178418
-.746918448e-1,.4480084893,-.3767263388
-.756554026e-1,.4853609888,-.2892337601
-.793932055e-1,.5193413444,-.2091906250
-.853167173e-1,.5506649321,-.1345507748
-.930489168e-1,.5797900294,-.6399777440e-1
-.1023323394,.6070295865,.3379258681e-2
-.1129833067,.6326068695,.6824623435e-1
-.1248668156,.6566859765,.1311119834
-.1378817501,.6793898155,.1923801839
-.1519516984,.7008112675,.2523819702
-.1670190276,.7210203845,.3113975152
-.1830409666,.7400691575,.3696710136
-.1999869977,.7579946795,.4274216099
-.816604783e-1,.4556616625,-.4665411844
-.792051210e-1,.4971699145,-.3691694078
-.804273830e-1,.5342079522,-.2823955021
-.843636344e-1,.5679470915,-.2028615166
-.904482810e-1,.5990748159,-.1286009398
-.983167208e-1,.6280343098,-.5833977411e-1
-.1077189080,.6551295078,.8807985885e-2
-.1184759342,.6805778738,.7349264433e-1
-.1304560488,.7045395548,.1362127497
-.1435604610,.7271346318,.1973649650
-.1577144953,.7484538758,.2572755253
-.1728618693,.7685656968,.3162211415
-.1889609062,.7875207558,.3744435767
-.963074381e-1,.4562625957,-.5774229535
-.884725603e-1,.5043097466,-.4634058176
-.861486059e-1,.5456582753,-.3664254790
-.874638256e-1,.5825833230,-.2799086877
-.914716571e-1,.6162354542,-.2005574995
-.976145793e-1,.6472923452,-.1264333906
-.1055323858,.6761918322,-.5627738648e-1
-.1149776727,.7032346412,.1078768348e-1
-.1257732351,.7286361652,.7540655592e-1
-.1377884859,.7525551382,.1380741075
-.1509254705,.7751106232,.1991844880
-.1651101378,.7963926312,.2590621777
-.1802866932,.8164689832,.3179826489
-.1251144818,.4422083757,-.7315439617
-.1062840326,.5036208390,-.5810402645
-.982454762e-1,.5519155652,-.4663727371
-.957972033e-1,.5934152052,-.3690220874
-.970244693e-1,.6304471615,-.2822620351
-.1009645699,.6641816202,-.2027378956
-.1070523493,.6953055392,-.1284846591
-.1149234404,.7242618092,-.5822915161e-1
-.1243279419,.7513541942,.8914162055e-2
-.1350870371,.7768000452,.7359528230e-1
-.1470690375,.8007594342,.1363125619
-.1601751973,.8233523872,.1974625269
-.1743308749,.8446696332,.2573713193
-.2013691926+.4448663709e-1*I,.3733964594+.5407428743e-1*I,-1.047197552+.1631840501*I
-.1406936169,.4856724062,-.7496297328
-.1201737624,.5491383723,-.5933359996
-.1114270723,.5982938454,-.4763977140
-.1085521886,.6403120379,-.3777706451
-.1094796806,.6777083762,-.2901775194
-.1131899071,.7117222512,-.2100633595
-.1190910762,.7430729972,-.1353706991
-.1268044166,.7722210162,-.6477711818e-1
-.1360714200,.7994805322,.2631775538e-2
-.1467077388,.8250756202,.6752407677e-1
-.1585779165,.8491709312,.1304100551
-.1715805130,.8718897682,.1916943713
-.1954640768+.1111111689*I,.4078484736+.1350575741*I,-1.047197551+.3987346367*I
-.2143648155+.5888083991e-1*I,.4233980138+.7157069334e-1*I,-1.047197551+.2152774505*I
-.1630643509,.5242783489,-.7855694845
-.1388534751,.5922308134,-.6165089735
-.1287019946,.6430938355,-.4950247621
-.1250064515,.6861095540,-.3939186123
-.1253662118,.7241959790,-.3047315012
-.1286452336,.7587339910,-.2234982552
-.1341986319,.7905074580,-.1479767581
-.1416193832,.8200111250,-.7674780800e-1
-.1506323011,.8475794870,-.8840918162e-2
-.1610424101,.8734495360,.5644690065e-1
-.1727070661,.8977946630,.1196487747
-.1920688617+.1558292056*I,.4433174298+.1894131316*I,-1.047197552+.5465297109*I
-.2109696003+.1216209243*I,.4588669700+.1478323660*I,-1.047197552+.4343232308*I
-.2298703404+.7605348736e-1*I,.4744165112+.9244434736e-1*I,-1.047197552+.2766727478*I
-.1964279194,.5535900799,-.8531252857
-.1638442244,.6317198527,-.6546443416
-.1511585406,.6856632444,-.5248366510
-.1460676317,.7303750548,-.4194492085
-.1454891572,.7696019198,-.3275837773
-.1480675592,.8049915468,-.2444994533
-.1530622960,.8374440778,-.1676204234
-.1600168893,.8675143688,-.9535745748e-1
-.1686275368,.8955716948,-.2664340564e-1
-.1786813074,.9218748808,.3928404254e-1
-.1917900158+.1954366881*I,.4800490535+.2375567213*I,-1.047197552+.6690381283*I
-.2106907557+.1674398347*I,.4955985947+.2035260552*I,-1.047197551+.5832840613*I
-.2295914947+.1355000901*I,.5111481345+.1647027354*I,-1.047197552+.4805361797*I
-.2484922342+.9574981248e-1*I,.5266976756+.1163855760*I,-1.047197551+.3458503729*I
-.2673929728+.2143258255e-1*I,.5422472158+.2605167991e-1*I,-1.047197551+.7888565991e-1*I
-.1981702805,.6649123328,-.7165164578
-.1806663120,.7247124338,-.5705319711
-.1732137819,.7722948348,-.4577323252
-.1711251501,.8133573248,-.3614508595
-.1726075936,.8500791078,-.2753951002
-.1767445554,.8835742788,-.1963725156
-.1829928107,.9145031358,-.1224941308
-.1909999789,.9432940028,-.5252767448e-1
-.1955824701+.2339032397*I,.5184302560+.2843134893*I,-1.047197551+.7802076497*I
-.2144832104+.2093081836*I,.5339797975+.2544177674*I,-1.047197551+.7100112361*I
-.2333839492+.1827366506*I,.5495293373+.2221196029*I,-1.047197552+.6306442851*I
-.2522846878+.1531634012*I,.5650788776+.1861727998*I,-1.047197551+.5379937375*I
-.2711854271+.1183594001*I,.5806284184+.1438679263*I,-1.047197551+.4233324793*I
-.2900861665+.7101016977e-1*I,.5961779590+.8631410650e-1*I,-1.047197551+.2587376106*I
-.2503312780,.6830244429,-.8293645561
-.2209304888,.7572853380,-.6421315649
-.2091090201,.8101782610,-.5151787245
-.2044817878,.8543264640,-.4112227128
-.2042112986,.8931789680,-.3202423000
-.2070180306,.9282910560,-.2377655680
-.2121939584,.9605233460,-.1613302709
-.500998240e-1,.3877123216,-.4625614764e-1
-.597531110e-1,.4145023012,.2041373558e-1
-.707349980e-1,.4396773458,.8471800839e-1
-.829204040e-1,.4633894922,.1471342337
-.962153370e-1,.4857529872,.2080446994
-.1105487270,.5068542218,.2677655841
-.1258671060,.5267581837,.3265664892
-.1421310900,.5455127460,.3846841915
-.1593130260,.5631515220,.4423327864
-.1773954690,.5796957160,.4997116008
-.1963702700,.5951552330,.5570117564
-.2162381610,.6095291830,.6144220188
-.2370087970,.6228058310,.6721344570
-.397838807e-1,.4079992457,-.9646850413e-1
-.483702225e-1,.4360861176,-.2770495790e-1
-.584025335e-1,.4624153883,.3826164668e-1
-.697254191e-1,.4871759424,.1020053043
-.822233665e-1,.5105081887,.1639737737
-.958093355e-1,.5325179258,.2245288118
-.1104175215,.5532851402,.2839721727
-.1259986115,.5728697722,.3425632750
-.1425166325,.5913155482,.4005317778
-.1599468545,.6086525282,.4580870103
-.1782744495,.6248987352,.5154254368
-.1974937255,.6400610892,.5727369663
-.2176078405,.6541357502,.6302107069
-.317548354e-1,.4270756963,-.1511865284
-.391002832e-1,.4566708971,-.7979232794e-1
-.480480048e-1,.4843185045,-.1175616756e-1
-.584002120e-1,.5102589355,.5363421649e-1
-.700123676e-1,.5346678776,.1169179870
-.827765837e-1,.5576764695,.1785194235
-.966114245e-1,.5793836985,.2387840078
-.1114553738,.5998643385,.2980020376
-.1272625382,.6191741735,.3564248388
-.1439997816,.6373534805,.4142764612
-.1616448310,.6544293335,.4717625457
-.1801850870,.6704170485,.5290774504
-.1996169740,.6853209695,.5864103834
-.263824318e-1,.4445938004,-.2113680088
-.322501463e-1,.4759852105,-.1365961738
-.399352607e-1,.5051675405,-.6594176485e-1
-.491776991e-1,.5324569145,.1514865831e-2
-.597921108e-1,.5580786321,.6644510971e-1
-.716423552e-1,.5821981725,.1293613961
-.846265064e-1,.6049394295,.1906698586
-.986675483e-1,.6263960175,.2507033443
-.1137073787,.6466385595,.3097432337
-.1297028482,.6657195065,.3680345724
-.1466231198,.6836763395,.4257970880
-.1644479311,.7005336895,.4832336340
-.1831665238,.7163046325,.5405370717
-.241786706e-1,.4600543302,-.2784040062
-.282296626e-1,.4936539998,-.1991628158
-.344077612e-1,.5246681325,-.1251209054
-.423553928e-1,.5535313674,-.5502827759e-1
-.518267345e-1,.5805425068,.1198693881e-1
-.626456050e-1,.6059156998,.7656614098e-1
-.746821173e-1,.6298088288,.1392019999
-.878388184e-1,.6523403488,.2002871584
-.1020420348,.6735998108,.2601450400
-.1172362645,.6936546778,.3190503695
-.1333804651,.7125548388,.3772435159
-.1504455754,.7303356188,.4349410090
-.1684129009,.7470197398,.4923436864
-.258956599e-1,.4726936839,-.3544431476
-.276108695e-1,.5091325379,-.2690258344
-.319283492e-1,.5424082858,-.1904600831
-.383242957e-1,.5731576207,-.1169241685
-.464570383e-1,.6017958490,-.4722231571e-1
-.560903736e-1,.6286100820,.1948519724e-1
-.670543629e-1,.6538068820,.8381943854e-1
-.792234048e-1,.6775389190,.1462596033
-.925031333e-1,.6999208960,.2071891013
-.1068221927,.7210395490,.2669248924
-.1221268959,.7409601340,.3257371355
-.1383776763,.7597307450,.3838629937
-.1555467273,.7773851830,.4415168264
-.327399421e-1,.4812317015,-.4431203784
-.312432678e-1,.5215746550,-.3485845038
-.331506149e-1,.5577799607,-.2636912800
-.376177821e-1,.5908737632,-.1855020591
-.441365841e-1,.6214737642,-.1122491597
-.523740323e-1,.6499847222,-.4276634617e-1
-.620992093e-1,.6766873202,.2376846390e-1
-.731456273e-1,.7017839252,.8796513161e-1
-.853900671e-1,.7254243142,.1502953981
-.987398821e-1,.7477211002,.2111375520
-.1131250150,.7687594392,.2708049635
-.1284927969,.7886033512,.3295652543
-.1448044938,.8072999182,.3876538126
-.469490408e-1,.4831829376,-.5515647981
-.405121192e-1,.5295308467,-.4419763959
-.390609554e-1,.5698184838,-.3475739615
-.410012214e-1,.6059837768,-.2627702581
-.454940954e-1,.6390463302,-.1846454973
-.520340319e-1,.6696206432,-.1114411087
-.602895139e-1,.6981096802,-.4199587526e-1
-.700305253e-1,.7247930312,.2450928896e-1
-.810911662e-1,.7498723482,.8868233355e-1
-.933486240e-1,.7734969132,.1509937309
-.1067105472,.7957789822,.2118208935
-.1211071006,.8168034382,.2714765784
-.1364857906,.8366340922,.3302279742
-.740584850e-1,.4721191584,-.6984691718
-.580616416e-1,.5300873219,-.5575875249
-.513079158e-1,.5768203156,-.4470010656
-.496559680e-1,.6173520084,-.3520090691
-.514512732e-1,.6536935030,-.2668105588
-.558310785e-1,.6868934940,-.1884018368
-.622781357e-1,.7175807030,-.1149838696
-.704544111e-1,.7461660170,-.4537326198e-1
-.801259124e-1,.7729338580,.2126232802e-1
-.911241418e-1,.7980890370,.8553928205e-1
-.1033244936,.8217830170,.1479336839
-.1166333174,.8441296280,.2088268042
-.1309797995,.8652149480,.2685341049
-.1594599057+.2419177937e-1*I,.3932605727+.2940553203e-1*I,-1.047197552+.8901604878e-1*I
-.909132921e-1,.5151039043,-.7191489458
-.731817940e-1,.5751805721,-.5723910739
-.656268339e-1,.6228874781,-.4592657114
-.634749093e-1,.6640269015,-.3627965472
-.649122819e-1,.7008034705,-.2766167178
-.690143935e-1,.7343410015,-.1975055985
-.752341956e-1,.7653044445,-.1235609562
-.832172081e-1,.7941246725,-.5354336646e-1
-.927194751e-1,.8210982215,.1341280516e-1
-.1035660225,.8464377725,.7794501814e-1
-.1156277896,.8703002035,.1405433374
-.1288079190,.8928032455,.2015986256
-.1543379843+.1054614870*I,.4280299155+.1281902866*I,-1.047197552+.3794008006*I
-.1732387243+.4804677703e-1*I,.4435794568+.5840170000e-1*I,-1.047197551+.1761146299*I
-.1145407366,.5534516083,-.7572422065
-.932775526e-1,.6178211023,-.5983896306
-.842325191e-1,.6673392192,-.4804903547
-.811805024e-1,.7095727195,-.3813307833
-.819844574e-1,.7471192185,-.2933925995
-.856003922e-1,.7812477065,-.2130350870
-.914252603e-1,.8126911985,-.1381616736
-.990742492e-1,.8419174375,-.6742927301e-1
-.1082852650,.8692450075,.8855200021e-4
-.1188716636,.8949007745,.6506742348e-1
-.1306964302,.9190512835,.1280225531
-.1519013422+.1527125639*I,.4638872594+.1856247992*I,-1.047197552+.5365465851*I
-.1708020813+.1178046282*I,.4794368000+.1431935913*I,-1.047197551+.4214581520*I
-.1897028208+.7013066362e-1*I,.4949863405+.8524505132e-1*I,-1.047197552+.2556013880*I
-.1489568153,.5830375457,-.8256228785
-.1200324353,.6567193564,-.6400672512
-.1083503656,.7094428380,-.5135733751
-.1037990985,.7534987020,-.4098510697
-.1035794266,.7922894380,-.3190161453
-.1064239891,.8273555430,-.2366396811
-.1116300191,.8595512430,-.1602777860
-.1187603564,.8894079140,-.8840772919e-1
-.1275222922,.9172813460,-.1999989579e-1
-.1377098171,.9434219520,.4568511387e-1
-.1528490060+.1940094907*I,.5011158309+.2358219379*I,-1.047197551+.6647655527*I
-.1717497451+.1658497977*I,.5166653715+.2015933374*I,-1.047197551+.5782915916*I
-.1906504848+.1336271106*I,.5322149123+.1624260960*I,-1.047197552+.4743534484*I
-.2095512237+.9321926119e-1*I,.5477644527+.1133096465*I,-1.047197551+.3370449878*I
-.2284519628+.2651957103e-2*I,.5633139934+.3223500363e-2*I,-1.047197551+.9770875537e-2*I
-.1568419933,.6888808873,-.7072017599
-.1401271818,.7477217540,-.5638936292
-.1330361282,.7948647740,-.4522407936
-.1311723184,.8356539880,-.3566244207
-.1328154224,.8721804870,-.2710097443
-.1370768855,.9055243240,-.1923025513
-.1434269469,.9363294330,-.1186604980
-.1515206411,.9650151260,-.4887658583e-1
-.13554680e-1,.3880350971,.2108647686e-1
-.24549523e-1,.4131943911,.8536908575e-1
-.36746779e-1,.4368921341,.1477680053
-.50052725e-1,.4592422440,.2086647173
-.64396494e-1,.4803308615,.2683748296
-.79724781e-1,.5002227803,.3271675468
-.95998332e-1,.5189657144,.3852793640
-.113189606,.5365931402,.4429241877
-.131281256,.5531261422,.5003012287
-.150265227,.5685745132,.5576015544
-.170142342,.5829372512,.6150139384
-.190922348,.5962025102,.6727305101
-.212624411,.6083469922,.7309526978
-.13274325e-2,.4096468046,-.2547607328e-1
-.114047732e-1,.4359213416,.4040845038e-1
-.227682969e-1,.4606324985,.1040866212
-.353035890e-1,.4839193534,.1660028099
-.489244100e-1,.5058867256,.2265164169
-.635655700e-1,.5266138604,.2859275510
-.791782410e-1,.5461601048,.3444944587
-.957268530e-1,.5645686978,.4024459901
-.1131870200,.5818692778,.4599909355
-.1315442280,.5980794908,.5173254449
-.1507930800,.6132058938,.5746393110
-.1709370270,.6272442928,.6321217102
-.1919885420,.6401795278,.6899668903
.88900616e-2,.4303270163,-.7580655876e-1
-.1429645e-3,.4578709356,-.7939418421e-2
-.105709445e-1,.4837192641,.5731685592e-1
-.222518119e-1,.5080446842,.1204935368
-.350794301e-1,.5309762105,.1820095639
-.489736546e-1,.5526112580,.2422067025
-.638739651e-1,.5730233890,.3013726269
-.797352673e-1,.5922674190,.3597568182
-.965250915e-1,.6103828130,.4175820507
-.1142217450,.6273959400,.4750531366
-.1328131600,.6433214700,.5323639815
-.1522962690,.6581631300,.5897036696
-.1726768570,.6719138890,.6472621513
.168207900e-1,.4498286625,-.1305781376
.89975055e-2,.4788430437,-.6022051042e-1
-.3652896e-3,.5059861231,.7003067241e-2
-.110871168e-1,.5314772740,.7174802772e-1
-.230351539e-1,.5554779463,.1345163080
-.361098430e-1,.5781091535,.1957068794
-.502359342e-1,.5994623615,.2556475927
-.653566996e-1,.6196065265,.3146163007
-.814300995e-1,.6385927475,.3728555671
-.984262318e-1,.6564573715,.4305834199
-.1163256578,.6732240255,.4880016373
-.1351183771,.6889048655,.5453025250
-.1548033205,.7035011925,.6026748731
.220986733e-1,.4678149688,-.1907220841
.157092441e-1,.4985722252,-.1171711096
.75820489e-2,.5272171986,-.4745760767e-1
-.20464240e-2,.5540373410,.1925908233e-1
-.130060519e-1,.5792394415,.8360063288e-1
-.251711075e-1,.6029763235,.1460466377
-.384471321e-1,.6253628035,.2069807785
-.527627018e-1,.6464856975,.2667202072
-.680640743e-1,.6664103315,.3255352175
-.843116397e-1,.6851848515,.3836630681
-.1014775536,.7028431025,.4413181817
-.1195441996,.7194064975,.4987000854
-.1385032695,.7348851365,.5559999938
.242200390e-1,.4838052321,-.2575824702
.195831101e-1,.5166926848,-.1798177490
.129245514e-1,.5471228101,-.1068847092
.45677232e-2,.5754886605,-.3764985216e-1
-.52623539e-2,.6020637485,.2868926195e-1
-.164030593e-1,.6270457475,.9272997328e-1
-.287338474e-1,.6505811775,.1549356653
-.421640133e-1,.6727802965,.2156788810
-.566249666e-1,.6937264745,.2752689556
-.720651928e-1,.7134823285,.3339706591
-.884469062e-1,.7320937895,.3920173879
-.1057438184,.7495928095,.4496209601
-.1239397024,.7659991145,.5069793203
.224519697e-1,.4970700390,-.3332165619
.200509128e-1,.5326752335,-.2496575043
.151963203e-1,.5652981122,-.1724330477
.83579127e-2,.5955096278,-.9990831714e-1
-.1529647e-3,.6236882285,-.3099059339e-1
-.101187001e-1,.6500984225,.3509794431e-1
-.213815531e-1,.6749319475,.9893886076e-1
-.338243713e-1,.6983312035,.1609849899
-.473589194e-1,.7204034435,.2216015966
-.619184812e-1,.7412297615,.2810929025
-.774530241e-1,.7608709725,.3397200666
-.939259787e-1,.7793715275,.3977139622
-.1113121033,.7967621085,.4552847259
.156360264e-1,.5064020845,-.4210560763
.162753099e-1,.5457028638,-.3290152552
.137417978e-1,.5811470564,-.2458109942
.87825830e-2,.6136427662,-.1688445894
.18574678e-2,.6437488872,-.9651536021e-1
-.67278479e-2,.6718370052,-.2774972558e-1
-.167592533e-1,.6981673762,.3821853309e-1
-.280813223e-1,.7229289232,.1019635102
-.405785193e-1,.7462620822,.1639330333
-.541637880e-1,.7682726702,.2244889049
-.687713106e-1,.7890406902,.2839329157
-.843517667e-1,.8086260932,.3425245058
-.1008691735,.8270726152,.4004933515
.16787145e-2,.5095105893,-.5276689594
.69078122e-2,.5543903694,-.4218532990
.75773451e-2,.5937279182,-.3297251478
.50661394e-2,.6291992252,-.2464612305
.1245644e-3,.6617163742,-.1694513957
-.67859197e-2,.6918402802,-.9708923821e-1
-.153586668e-1,.7199436752,-.2829797781e-1
-.253789788e-1,.7462875312,.3769055187e-1
-.366910409e-1,.7710612422,.1014516997
-.491790451e-1,.7944055742,.1634341340
-.627557372e-1,.8164265872,.2240002397
-.773551481e-1,.8372044672,.2834522156
-.929278361e-1,.8567993122,.3420497914
-.243143742e-1,.5007742086,-.6693668933
-.105676697e-1,.5560072897,-.5360330565
-.49244687e-2,.6013904213,-.4289298600
-.39840715e-2,.6410572090,-.3360174264
-.62962344e-2,.6767704560,-.2522195002
-.110807733e-1,.7094784860,-.1748216618
-.178612174e-1,.7397604570,-.1021657469
-.263223941e-1,.7679994690,-.3314606106e-1
-.362443270e-1,.7944629060,.3302307603e-1
-.474677129e-1,.8193444040,.9692826938e-1
-.598743130e-1,.8427876840,.1590257286
-.733750984e-1,.8649009630,.2196830479
-.879027516e-1,.8857660660,.2792060901
-.909798981e-1,.4458195757,-.9482331633
-.424809228e-1,.5432946521,-.6926836795
-.269484940e-1,.6006983119,-.5533671093
-.204173098e-1,.6471608017,-.4434820937
-.189062209e-1,.6875212770,-.3489039286
-.208031495e-1,.7237392480,-.2639823518
-.252621835e-1,.7568429330,-.1857727332
-.317743021e-1,.7874510600,-.1125044785
-.400060479e-1,.8159689490,-.4300977300e-1
-.497262189e-1,.8426776310,.2353441621e-1
-.607681422e-1,.8677797000,.8773855827e-1
-.730084674e-1,.8914250900,.1500747932
-.863544565e-1,.9137265270,.2109216913
-.1135084461+.1000317181*I,.4483315137+.1215903074*I,-1.047197552+.3606910114*I
-.1324091841+.3539060917e-1*I,.4638810534+.4301790603e-1*I,-1.047197551+.1300285810*I
-.675377428e-1,.5812571484,-.7334185870
-.485370196e-1,.6428765817,-.5823330075
-.404251683e-1,.6912603990,-.4674311295
-.379323356e-1,.7328142020,-.3699475657
-.391281416e-1,.7698843990,-.2831003716
-.430440473e-1,.8036482670,-.2035143485
-.491121451e-1,.8347961080,-.1292149474
-.569665748e-1,.8637726310,-.5892388211e-1
-.663565364e-1,.8908826890,.8247383001e-2
-.771026370e-1,.9163443350,.7295073759e-1
-.890727929e-1,.9403181210,.1356857794
-.1121065342+.1499922248*I,.4846081012+.1823181792*I,-1.047197552+.5277927326*I
-.1310072738+.1144363309*I,.5001576423+.1390993668*I,-1.047197551+.4100482518*I
-.1499080128+.6463170361e-1*I,.5157071823+.7856096898e-1*I,-1.047197552+.2359378738*I
-.1035585918,.6105694360,-.8044076541
-.7721583740e-1,.6811132370,-.6279103574
-.6633715660e-1,.7328601842,-.5040529614
-.6223008740e-1,.7763761192,-.4016925007
-.6230959070e-1,.8148032012,-.3117109591
-.6537776220e-1,.8495975062,-.2299248151
-.7076219570e-1,.8815763532,-.1539960764
-.7804145510e-1,.9112520062,-.8245605715e-1
-.8693194060e-1,.9389691852,-.1430591097e-1
-.9723336290e-1,.9649713462,.5117487149e-1
.21135457e-1,.3867413993,.8509479028e-1
.8943194e-2,.4104452095,.1475009959
-.4358113e-2,.4328009576,.2084034979
-.18697510e-1,.4538948904,.2681181458
-.34021623e-1,.4737918827,.3269143101
-.50291143e-1,.4925397159,.3850286037
-.67478483e-1,.5101719235,.4426750140
-.85566254e-1,.5267096405,.5000527998
-.104546361,.5421627080,.5573530513
-.124419590,.5565301700,.6147645389
-.145195648,.5698002280,.6724793668
-.166893658,.5819496370,.7306989070
-.189543163,.5929424860,.7896405482
.350523007e-1,.4094415041,.4155849092e-1
.236670397e-1,.4341262401,.1052017533
.11111765e-1,.4573888039,.1670900697
-.2527715e-2,.4793334981,.2275816010
-.17186532e-1,.5000391694,.2869755707
-.32816120e-1,.5195648516,.3455296105
-.49381121e-1,.5379535215,.4034721366
-.66857338e-1,.5552345945,.4610116554
-.85230420e-1,.5714255115,.5183441504
-.104495132,.5865326375,.5756593545
-.124655080,.6005515865,.6331464845
-.145722902,.6134669995,.6909999305
-.167720910,.6252517555,.7494253905
.471708216e-1,.4314158801,-.5212024609e-2
.366888767e-1,.4571986131,.5994929840e-1
.249590263e-1,.4814644948,.1230501518
.120861762e-1,.5043410400,.1845057155
-.18504426e-2,.5259245561,.2446551438
-.167910152e-1,.5462877478,.3037842660
-.326910125e-1,.5654847428,.3621412631
-.495184385e-1,.5835544328,.4199480142
-.672520155e-1,.6005226788,.4774087531
-.858800515e-1,.6164036938,.5347170718
-.1053998455,.6312007628,.5920619808
-.1258175475,.6449064088,.6496335833
-.1471484705,.6575020178,.7076288448
.572745360e-1,.4524806752,-.5571108106e-1
.478174324e-1,.4795091206,.1133136551e-1
.370112996e-1,.5048977975,.7593223738e-1
.249864079e-1,.5288050507,.1385854071
.118404831e-1,.5513496697,.1996843433
-.23525943e-2,.5726214555,.2595530440
-.175371623e-1,.5926880675,.3184666411
-.336720480e-1,.6115995515,.3766657903
-.507280802e-1,.6293913655,.4343672159
-.686864666e-1,.6460863525,.4917718770
-.875378047e-1,.6616959405,.5490716715
-.1072816051,.6762207245,.6064553552
-.1279262675,.6896504965,.6641141964
.650866417e-1,.4723948190,-.1105995445
.568123970e-1,.5008610496,-.4119336378e-1
.470549072e-1,.5275243712,.2528098962e-1
.359794611e-1,.5525856916,.8942948115e-1
.237084493e-1,.5761937832,.1517212674
.103339173e-1,.5984605252,.2125328507
-.40745305e-2,.6194705242,.2721763519
-.194645824e-1,.6392873672,.3309185095
-.357977969e-1,.6579577792,.3889940937
-.530473261e-1,.6755143942,.4466158471
-.711964423e-1,.6919775452,.5039822719
-.902376662e-1,.7073563242,.5612841155
-.1101723897,.7216490382,.6187101974
.702427026e-1,.4908307006,-.1707882503
.633644970e-1,.5209938418,-.9835336123e-1
.548194662e-1,.5491309276,-.2950551273e-1
.448236102e-1,.5755045108,.3652777545e-1
.335336039e-1,.6003050298,.1003246232
.210658558e-1,.6236739838,.1623355646
.75080593e-2,.6457179648,.2229242686
-.70734821e-2,.6665175658,.2823938394
-.226290631e-1,.6861332048,.3410046451
-.391223837e-1,.7046090048,.3989870081
-.565284333e-1,.7219753668,.4565506980
-.748321312e-1,.7382506208,.5138924359
-.940275474e-1,.7534419768,.5712022321
.722439293e-1,.5073226852,-.2375849391
.670631688e-1,.5395491000,-.1611614335
.599538852e-1,.5694313618,-.8924450144e-1
.512100966e-1,.5973268545,-.2080010182e-1
.410386331e-1,.6234869815,.4491387048e-1
.295900801e-1,.6480947855,.1084559511
.169765863e-1,.6712865835,.1702635010
.32827242e-2,.6931651745,.2306910804
-.114275842e-1,.7138082565,.2900353802
-.271065229e-1,.7332739525,.3485522419
-.437193581e-1,.7516044795,.4064688397
-.612424288e-1,.7688286005,.4639928591
-.796618736e-1,.7849631625,.5213198131
.703701089e-1,.5211686921,-.3129763268
.673404541e-1,.5560098142,-.2310887901
.619868087e-1,.5880260842,-.1550855299
.547332838e-1,.6177330188,-.8348866996e-1
.458650357e-1,.6454772278,-.1529411325e-1
.355833322e-1,.6715033568,.5022187954e-1
.240350446e-1,.6959899318,.1136059323
.113297076e-1,.7190700918,.1752873724
-.24500277e-2,.7408443028,.2356151876
-.172417129e-1,.7613884698,.2948821428
-.329987072e-1,.7807592878,.3533413103
-.496872520e-1,.7989977888,.4112179423
-.672845343e-1,.8161317048,.4687184673
.634966634e-1,.5312184675,-.4002383210
.633643827e-1,.5695813982,-.3104067571
.602566057e-1,.6043275630,-.2287247444
.548404898e-1,.6362678992,-.1528725912
.475347322e-1,.6659113422,-.8139101647e-1
.386213396e-1,.6936006782,-.1328654316e-1
.282995983e-1,.7195781412,.5215802068e-1
.167150487e-1,.7440206382,.1154850484
.39762886e-2,.7670601722,.1771209915
-.98347229e-2,.7887963662,.2374128439
-.246560669e-1,.8093044832,.2966519628
-.404415282e-1,.8286406972,.3550904257
-.571577019e-1,.8468456162,.4129528023
.496336952e-1,.5353290357,-.5055174686
.538084013e-1,.5789271854,-.4029501674
.537746754e-1,.6174099112,-.3128383999
.507408182e-1,.6522459242,-.2309619345
.453838144e-1,.6842581132,-.1549668062
.381274833e-1,.7139616352,-.8337614956e-1
.292568102e-1,.7417028972,-.1518643773e-1
.189729575e-1,.7677264142,.5032571301e-1
.74227236e-2,.7922106232,.1137066999
-.52844070e-2,.8152886032,.1753856928
-.190658203e-1,.8370607742,.2357115733
-.338590961e-1,.8576030082,.2949770308
-.496176174e-1,.8769719702,.3534350833
.243311927e-1,.5284504216,-.6434472575
.362419699e-1,.5814519006,-.5162001462
.409176980e-1,.6256590513,-.4120948168
.412205760e-1,.6645509252,-.3210215946
.384379324e-1,.6996922922,-.2384809583
.332811601e-1,.7319478662,-.1619989042
.261918541e-1,.7618544102,-.9003744530e-1
.174652800e-1,.7897708272,-.2155831863e-1
.73090470e-2,.8159494682,.4418315676e-1
-.41257387e-2,.8405740062,.1077471877
-.167265648e-1,.8637812012,.1695722566
-.304085903e-1,.8856741792,.2300137033
-.451076886e-1,.9063308882,.2893687693
-.324451636e-1,.4867120044,-.8845590632
.48006846e-2,.5705087060,-.6694881342
.185563335e-1,.6257526588,-.5361244783
.242041111e-1,.6711413530,-.4290070164
.251474845e-1,.7108117600,-.3360859382
.228375024e-1,.7465276570,-.2522821478
.180546803e-1,.7792377740,-.1748800536
.112756557e-1,.8095214700,-.1022209215
.28156953e-2,.8377619610,-.3319873473e-1
-.71051657e-2,.8642267010,.3297237838e-1
-.183275865e-1,.8891093720,.9687914644e-1
-.307333006e-1,.9125537290,.1589778638
-.442332610e-1,.9346680110,.2196361817
-.729973446e-1+.9488752368e-1*I,.4687621331+.1153374488*I,-1.047197552+.3428527917*I
-.918980834e-1+.1743149375e-1*I,.4843116734+.2118828630e-1*I,-1.047197551+.6418157624e-1*I
-.218474199e-1,.6079832036,-.7132892920
-.46196488e-2,.6674475812,-.5682425805
.27074673e-2,.7148775398,-.4558412913
.47183561e-2,.7558455308,-.3597901042
.31804555e-2,.7924999048,-.2738868052
-.9994336e-3,.8259428988,-.1949731220
-.72827628e-2,.8568291218,-.1211762896
-.153197236e-1,.8855837748,-.5127279741e-1
-.248691785e-1,.9124999658,.1559355443e-1
-.357579809e-1,.9377881548,.8005427147e-1
-.478583253e-1,.9616036948,.1425954759
.54163665e-1,.3840469741,.1463596655
.40882197e-1,.4064268372,.2072869845
.26561497e-1,.4275434963,.2670210676
.11255229e-1,.4474621798,.3258320123
-.4997062e-2,.4662309553,.3839569354
-.22167587e-1,.4838836014,.4416101667
-.40238780e-1,.5004414704,.4989911755
-.59202376e-1,.5159146066,.5562911489
-.79059000e-1,.5303022528,.6136988487
-.99818190e-1,.5435928138,.6714062641
-.121498886,.5557632678,.7296145399
-.144130427,.5667779528,.7885406973
-.167754185,.5765865818,.8484258239
.695991770e-1,.4076570244,.1053847855
.57040624e-1,.4309156038,.1672685376
.43398083e-1,.4528565765,.2277564522
.28736369e-1,.4735587262,.2871476125
.13104004e-1,.4930810332,.3456995461
-.3463688e-2,.5114664339,.4036406006
-.20942539e-1,.5287443042,.4611792336
-.39318228e-1,.5449320522,.5185114037
-.58585543e-1,.5600360132,.5758268335
-.78748118e-1,.5740517692,.6333147457
-.99818619e-1,.5869639272,.6911695558
-.121819385,.5987453302,.7495970028
-.144783635,.6093556022,.8088212907
.834034702e-1,.4306991006,.6157578427e-1
.716434109e-1,.4549282632,.1246300852
.587426506e-1,.4777708830,.1860485366
.447798602e-1,.4993225868,.2461686953
.298144221e-1,.5196555549,.3052752638
.138905177e-1,.5388234906,.3636156281
-.29601476e-2,.5568649320,.4214111195
-.207165520e-1,.5738054310,.4788656222
-.393672380e-1,.5896589160,.5361725373
-.589097270e-1,.6044283980,.5935208347
-.793503970e-1,.6181061250,.6511007198
-.1007048040,.6306731900,.7091094094
-.1229984840,.6420985510,.7677575110
.954020685e-1,.4530313230,.1455794148e-1
.845333213e-1,.4783438908,.7905255624e-1
.724512890e-1,.5021816897,.1416208405
.592523560e-1,.5246618750,.2026522288
.450093937e-1,.5458730250,.2624679057
.297772773e-1,.5658818412,.3213410118
.135965413e-1,.5847375932,.3795108014
-.35041861e-2,.6024750792,.4371930510
-.215065920e-1,.6191165602,.4945881253
-.404017193e-1,.6346729212,.5518876336
-.601895129e-1,.6491442322,.6092803254
-.808788145e-1,.6625197432,.6669577370
-.1024878165,.6747773432,.7251200855
.1053772510,.4744733374,-.3615750208e-1
.955166869e-1,.5010113701,.3012505679e-1
.843485525e-1,.5259600266,.9412067887e-1
.719926236e-1,.5494648992,.1562903618
.585390464e-1,.5716355605,.2170049914
.440559874e-1,.5925548685,.2765727462
.285946274e-1,.6122850345,.3352575768
.121924779e-1,.6308716545,.3932923070
-.51244080e-2,.6483463965,.4508883725
-.233400138e-1,.6647287295,.5082434865
-.424475274e-1,.6800269315,.5655480589
-.624489971e-1,.6942385145,.6229909886
-.833554355e-1,.7073500925,.6807653283
.1130512365,.4947890542,-.9122247432e-1
.1043504194,.5227367792,-.2269131149e-1
.942169682e-1,.5489431117,.4309137135e-1
.828027693e-1,.5735926725,.1066882845
.702208814e-1,.5968228885,.1685396037
.565565481e-1,.6187373725,.2290018330
.418742028e-1,.6394144445,.2883730368
.262220681e-1,.6589127205,.3469100241
.96352166e-2,.6772748315,.4048406409
-.78623993e-2,.6945298935,.4623730171
-.262566537e-1,.7106950745,.5197029185
-.455425200e-1,.7257764865,.5770200004
-.657238169e-1,.7397694865,.6345135355
.1180593713,.5136583500,-.1515327597
.1107220665,.5432634477,-.8012065045e-1
.1017813896,.5709196185,-.1207048463e-1
.914354358e-1,.5968676518,.5333101000e-1
.798289474e-1,.6212834818,.1166236491
.670699579e-1,.6442984268,.1782321598
.532400105e-1,.6660116028,.2385023342
.384007039e-1,.6864978858,.2977246861
.225979970e-1,.7058131388,.3561506956
.58650816e-2,.7239977068,.4140045186
-.117757216e-1,.7410787228,.4714918652
-.303117683e-1,.7570715528,.5288071314
-.497394431e-1,.7719805938,.5861395367
.1199046382,.5306276889,-.2183690871
.1142176087,.5622387243,-.1431675801
.1066846460,.5916059980,-.7218356331e-1
.975744287e-1,.6190560890,-.4468476870e-2
.870777979e-1,.6448209700,.6066708585e-1
.753346107e-1,.6690706410,.1237473669
.624494402e-1,.6919322100,.1851865296
.485012694e-1,.7135016850,.2453230217
.335497223e-1,.7338515370,.3044421727
.176391746e-1,.7530357080,.3627918137
.8014934e-3,.7710929310,.4205935805
-.169421562e-1,.7880489350,.4780515525
-.355801860e-1,.8039178030,.5353592371
.1178738270,.5450165629,-.2936653402
.1142659159,.5791548043,-.2132870831
.1084475342,.6106061802,-.1383982754
.1008040113,.6398390652,-.6765405722e-1
.915977487e-1,.6671724112,-.1269635004e-3
.810155859e-1,.6928333272,.6485927287e-1
.691946718e-1,.7169885192,.1278202851
.562376516e-1,.7397627542,.1891643854
.422220780e-1,.7612503002,.2492259426
.272064682e-1,.7815222832,.3082874085
.112343050e-1,.8006315592,.3665945871
-.56632920e-2,.8186159532,.4243677213
-.234658138e-1,.8355003962,.4818099977
.1108642233,.5557189112,-.3805805277
.1100341588,.5932336740,-.2927153550
.1063983170,.6273379642,-.2124092840
.1005573519,.6587618902,-.1375740553
.928947939e-1,.6879716372,-.6687096748e-1
.836719782e-1,.7152848632,.6238615400e-3
.730750613e-1,.7409278452,.6558445807e-1
.612407297e-1,.7650667272,.1285249913
.482712996e-1,.7878258782,.1898527732
.342440777e-1,.8092992642,.2499014744
.192173910e-1,.8295577842,.3089530575
.32345704e-2,.8486541052,.3672529767
-.136733953e-1,.8666258972,.4250212415
.969576453e-1,.5607034491,-.4849479062
.1002045974,.6031738962,-.3852006479
.995359615e-1,.6408848790,-.2968833386
.960230165e-1,.6751385530,-.2162591499
.902813267e-1,.7066831480,-.1411879900
.827023875e-1,.7359945350,-.7030388136e-1
.735522513e-1,.7633961050,-.2667090912e-2
.630200858e-1,.7891177930,.6240629022e-1
.512446183e-1,.8133282260,.1254369068
.383296170e-1,.8361535360,.1868364812
.243534695e-1,.8576890040,.2469417561
.93753383e-2,.8780065430,.3060368618
-.65607727e-2,.8971596410,.3643687827
.720126117e-1,.5553306625,-.6202030409
.823970023e-1,.6064767916,-.4979601552
.862253325e-1,.6496539145,-.3964500694
.859563269e-1,.6878506545,-.3070062354
.827457301e-1,.7224718375,-.2255939680
.772472428e-1,.7543120505,-.1499404448
.698725219e-1,.7838716675,-.7861056823e-1
.608994656e-1,.8114884805,-.1062471315e-1
.505247648e-1,.8374015715,.5472576508e-1
.388922198e-1,.8617857285,.1179776700
.261091957e-1,.8847714595,.1795536901
.122567447e-1,.9064572825,.2397981971
-.26039152e-2,.9269176095,.2990007072
.199458705e-1,.5205861819,-.8423400216
.510503183e-1,.5969179043,-.6490951875
.633486084e-1,.6503904125,-.5205691968
.682332145e-1,.6948514565,-.4158196799
.686751232e-1,.7339123245,-.3243473665
.659956761e-1,.7691791305,-.2415324312
.609208604e-1,.8015343235,-.1648499154
.538997418e-1,.8315237505,-.9273611241e-1
.452318787e-1,.8595115315,-.2413824049e-1
.351275610e-1,.8857532765,.4169725835e-1
.237396787e-1,.9104348265,.1053363159
.111819936e-1,.9336944605,.1672212755
-.24597364e-2,.9556364185,.2277101480
.85679709e-1,.3801170866,.2053374187
.71391685e-1,.4012734630,.2651056445
.56116594e-1,.4212300416,.3239425762
.39894395e-1,.4400353946,.3820862265
.22753229e-1,.4577237280,.4397515260
.4710978e-2,.4743167758,.4971383171
-.14223805e-1,.4898249354,.5544379592
-.34051456e-1,.5042477980,.6118392053
-.54781222e-1,.5175741244,.6695338509
-.76431727e-1,.5297812772,.7277226438
-.99031950e-1,.5408340302,.7866219752
-.122622841,.5506826082,.8464720045
-.147259784,.5592596922,.9075471621
.102498225,.4044981424,.1665665952
.88867727e-1,.4264537536,.2270687451
.74217411e-1,.4471697570,.2864709685
.58595966e-1,.4667053387,.3450311964
.42038856e-1,.4851036010,.4029780502
.24570367e-1,.5023940665,.4605201747
.6204928e-2,.5185942734,.5178536316
-.13052147e-1,.5337106822,.5751681848
-.33204390e-1,.5477389972,.6326530289
-.54264359e-1,.5606639562,.6905024870
-.76254279e-1,.5724585432,.7489221308
-.99207233e-1,.5830825462,.8081359042
-.123169048,.5924802592,.8683949848
.1178212353,.4284360098,.1252697023
.1049091847,.4512649068,.1866731856
.909358047e-1,.4728037386,.2467815411
.759603040e-1,.4931244748,.3058790194
.600267224e-1,.5122806479,.3642126871
.431666479e-1,.5303106523,.4220036562
.25401000e-1,.5472399162,.4794556676
.6741141e-2,.5630822512,.5367620497
-.12810542e-1,.5778405582,.5941117545
-.33260518e-1,.5915069742,.6516950298
-.54624440e-1,.6040624722,.7097091973
-.76927955e-1,.6154758782,.7683650376
-.100208102,.6257021722,.8278943928
.1315047900,.4518178851,.8115600695e-1
.1193843216,.4756089642,.1436675249
.1061497089,.4980457810,.2046537606
.918731509e-1,.5192160954,.2644340216
.766089971e-1,.5391859690,.3232801218
.603973529e-1,.5580041518,.3814303890
.432664834e-1,.5757049998,.4390999675
.252343785e-1,.5923103798,.4964888320
.63096954e-2,.6078308168,.5537884051
-.135078028e-1,.6222660198,.6111874365
-.342272600e-1,.6356048778,.6688776556
-.558671880e-1,.6478248848,.7270596722
-.784564440e-1,.6588909688,.7859496600
.1433725809,.4745040619,.3385298651e-1
.1321333998,.4993663609,.9773242354e-1
.1197123070,.5227920256,.1598093146
.1061980131,.5448888849,.2204503183
.916575953e-1,.5657384720,.2799606381
.761413717e-1,.5854019510,.3386021263
.596861464e-1,.6039240560,.3966061395
.423173643e-1,.6213357180,.4541831355
.240504967e-1,.6376557400,.5115302426
.48918424e-2,.6528917800,.5688376314
-.151611548e-1,.6670407310,.6262942849
-.361200330e-1,.6800885670,.6840936695
-.580059034e-1,.6920096280,.7424397911
.1532048835,.4963171052,-.1712458373e-1
.1429597592,.5223876975,.4845688870e-1
.1314445828,.5469145193,.1118932131
.1187697501,.5700317585,.1736163614
.1050185477,.5918406505,.2339771588
.902539110e-1,.6124176965,.2932696658
.745228694e-1,.6318200595,.3517478647
.578595045e-1,.6500891685,.4096376433
.402869114e-1,.6672530935,.4671458410
.218184380e-1,.6833280605,.5244674880
.24583725e-2,.6983192815,.5817919939
-.177978426e-1,.7122212175,.6393088518
-.389638386e-1,.7250172985,.6972133571
.1607218083,.5170250046,-.7242276859e-1
.1516166769,.5444812789,-.4697687031e-2
.1411245720,.5702516619,.6044581096e-1
.1293854954,.5945063285,.1235324285
.1165041223,.6173725145,.1849766438
.1025595123,.6389463165,.2451171199
.876113483e-1,.6593002815,.3042393423
.717040527e-1,.6784884055,.3625912486
.548695331e-1,.6965494725,.4203945493
.371289890e-1,.7135092495,.4778533719
.184940401e-1,.7293818635,.5351612493
-.10326795e-2,.7441705135,.5925071790
-.214573898e-1,.7578676405,.6500812963
.1655567312,.5363136467,-.1329271803
.1577872480,.5653934228,-.6245428433e-1
.1484713500,.5925935065,.4859851628e-2
.1377914006,.6181355605,.6967682289e-1
.1258815071,.6421825965,.1325026275
.1128421456,.6648567445,.1937390103
.987492520e-1,.6862503055,.2537157586
.836600884e-1,.7064328835,.3127120899
.676171255e-1,.7254561005,.3709715311
.506506299e-1,.7433567485,.4287127673
.327803611e-1,.7601588435,.4861379910
.140166160e-1,.7758749025,.5434397200
-.56392493e-2,.7905065745,.6008067696
.1672115237,.5537390011,-.1998998643
.1610520054,.5847757198,-.1258145512
.1531201297,.6136581055,-.5568845708e-1
.1436625537,.6406859775,.1135308663e-1
.1328559991,.6660741415,.7595323913e-1
.1208307219,.6899809265,.1386058358
.1076844407,.7125251105,.1997043131
.934910273e-1,.7337964885,.2595726545
.783061389e-1,.7538627115,.3184859786
.621709447e-1,.7727738195,.3766849280
.451146116e-1,.7905652685,.4343862238
.271559295e-1,.8072598955,.4917908178
.83042967e-2,.8228691255,.5490906091
.1649748181,.5686371893,-.2752373377
.1608333613,.6021268965,-.1962261635
.1545814342,.6330512902,-.1223563225
.1465711481,.6618383672,-.5239646201e-1
.1370450309,.6887829252,.1451426936e-1
.1261771297,.7140965212,.7901031595e-1
.1140958703,.7379352592,.1415797429
.1008976542,.7604163162,.2026120421
.866553670e-1,.7816282862,.2624284324
.714238941e-1,.8016378842,.3213020831
.552437785e-1,.8204943912,.3794722670
.381436567e-1,.8382326132,.4371547724
.201418468e-1,.8548748182,.4945499739
.1577552866,.5799355839,-.3620146500
